# .PCD v0.7 - Point Cloud Data file format
VERSION 0.7
FIELDS x y z rgb
SIZE 4 4 4 4
TYPE F F F F
COUNT 1 1 1 1
WIDTH 1385
HEIGHT 1
VIEWPOINT 0 0 0 1 0 0 0
POINTS 1385
DATA ascii
1.0664169 -0.25280991 1.0389761 0
1.09171 -0.25425157 1.0272259 0
-0.49250552 -0.22452492 1.0354429 0
-0.24098024 -0.22561461 1.0445797 0
-0.23819971 -0.22562017 1.0292792 0
0.53583115 -0.22801377 1.0331887 0
0.5409295 -0.2224202 1.0459502 0
0.95809293 -0.23706453 1.0486599 0
0.97534138 -0.22524938 1.0424813 0
1.0058628 -0.22478214 1.0289876 0
1.0325938 -0.23185444 1.0243021 0
1.061517 -0.23780489 1.0236051 0
1.1037844 -0.23867345 1.0205956 0
-0.49256086 -0.19423975 1.0349298 0
-0.24091852 -0.1969015 1.0445061 0
-0.23836002 -0.1943346 1.0306957 0
0.53704005 -0.19689845 1.0283593 0
0.54221398 -0.19635484 1.0433728 0
0.97641993 -0.1944102 1.04346 0
1.0047923 -0.19503124 1.0298436 0
1.0227618 -0.19638401 1.0213301 0
-0.49250633 -0.16483593 1.0356884 0
-0.24095178 -0.16400287 1.0448272 0
-0.23827182 -0.16460398 1.0298252 0
0.53850687 -0.16842043 1.0255225 0
0.54314858 -0.1665262 1.0406113 0
0.97672856 -0.16535459 1.0436066 0
1.0051258 -0.16473149 1.0299385 0
1.0235716 -0.16560511 1.02114 0
-0.49260685 -0.13542148 1.0354638 0
-0.24104694 -0.1336465 1.0452667 0
-0.23830232 -0.1348976 1.0301965 0
0.55723369 -0.12731545 1.0371956 0
0.97651619 -0.13502626 1.0437133 0
1.0046471 -0.13439314 1.0303901 0
1.022997 -0.13461539 1.0216559 0
-0.49266937 -0.10589809 1.0354519 0
-0.24076846 -0.10350382 1.0447291 0
-0.23824708 -0.1049115 1.0305294 0
0.55677563 -0.10249949 1.0329007 0
0.97691059 -0.10476422 1.0437174 0
1.004566 -0.10513245 1.0304471 0
1.0234797 -0.10536276 1.0215596 0
-0.49282563 -0.07530234 1.0342842 0
-0.24093318 -0.073261045 1.0454999 0
-0.23826861 -0.074530274 1.0306693 0
0.55746794 -0.075787097 1.0342718 0
0.97960013 -0.076104805 1.0442141 0
1.0049731 -0.075242065 1.0316572 0
1.0247278 -0.073470332 1.0221179 0
-0.49272645 -0.045098439 1.0350245 0
-0.24033514 -0.044962291 1.0421181 0
-0.23771195 -0.044899125 1.0276189 0
0.53994024 -0.033452988 1.0453517 0
0.55530196 -0.043864731 1.0369793 0
0.9826116 -0.047012426 1.0451483 0
1.0053385 -0.045215238 1.0337505 0
1.0270849 -0.044670388 1.0226064 0
-0.49269447 -0.015848296 1.0349932 0
-0.24088392 -0.016660711 1.0453197 0
-0.2382624 -0.016941741 1.0308112 0
0.53951645 -0.020237446 1.0447106 0
0.55478442 -0.013514996 1.0253296 0
0.98315847 -0.01556302 1.0469851 0
1.0033604 -0.015594009 1.0363468 0
1.0265989 -0.015496237 1.0243002 0
-0.49254081 0.01479755 1.035629 0
-0.24097025 0.013823058 1.0454545 0
-0.23828517 0.014761877 1.0303563 0
0.55369467 0.015062153 1.0222473 0
0.98266959 0.013131188 1.0471379 0
1.0048143 0.013070632 1.0355357 0
1.0268618 0.011838132 1.0242037 0
-0.49252495 0.044735309 1.0347592 0
-0.24098444 0.046483688 1.0444987 0
-0.23836204 0.043651816 1.030624 0
0.55743027 0.047403824 1.0331132 0
0.98142761 0.045627095 1.0454286 0
1.0050762 0.044691522 1.0335528 0
1.0266082 0.04165104 1.0227706 0
-0.49251294 0.074715167 1.035274 0
-0.24103646 0.074914366 1.0434315 0
-0.23831621 0.073123932 1.030194 0
0.49755582 0.069167055 1.0351168 0
0.52502805 0.070442185 1.0349315 0
0.54971683 0.06971354 1.0348128 0
0.97791463 0.075178698 1.0446254 0
1.0044043 0.075583659 1.0315387 0
1.0241213 0.071794793 1.0222342 0
-0.49256134 0.10455661 1.0348783 0
-0.24106447 0.10313157 1.0440922 0
-0.23900299 0.10585625 1.0316387 0
0.55605245 0.091727853 1.025359 0
0.97682339 0.10523757 1.0432425 0
1.005339 0.10497351 1.0298032 0
1.0232308 0.10524296 1.0215251 0
-0.49263445 0.1348 1.0352004 0
-0.24087127 0.13567315 1.0453026 0
-0.23828892 0.13292049 1.0316421 0
0.97626609 0.13389993 1.0431535 0
1.0055349 0.13421705 1.0294652 0
1.0229688 0.13484284 1.0213385 0
-0.49261138 0.16488945 1.0352188 0
-0.41658506 0.17145309 1.0352399 0
-0.24083318 0.16718946 1.0450572 0
-0.2381255 0.1643787 1.0303524 0
0.97627723 0.16439639 1.0432267 0
1.004104 0.16500531 1.0301031 0
1.0221484 0.16500898 1.0215266 0
-0.49267352 0.19459984 1.034781 0
-0.41658407 0.18774524 1.036449 0
-0.24096721 0.1955025 1.045657 0
-0.23813057 0.19681373 1.0294799 0
0.97582495 0.19438416 1.0432193 0
1.0045409 0.19452146 1.0296204 0
1.0226142 0.19329748 1.0212382 0
-0.49262124 0.22475781 1.0352373 0
-0.24082261 0.22106346 1.0440161 0
-0.23826802 0.22639869 1.0293137 0
0.52124721 0.23766673 1.0228515 0
0.95689982 0.23102479 1.0494412 0
0.97507769 0.22524393 1.0418377 0
1.0061743 0.22611122 1.0292721 0
1.0321382 0.23303999 1.0247983 0
1.0653687 0.23768514 1.0236063 0
1.0916693 0.2378259 1.0203516 0
-0.49270785 0.25444555 1.0350983 0
-0.24073878 0.24998659 1.0435034 0
-0.23837754 0.25217733 1.0299839 0
0.50381184 0.24861525 1.0394323 0
0.51999778 0.24407551 1.0346197 0
0.9574368 0.24531865 1.0478438 0
0.97911674 0.24370366 1.0438012 0
1.0063484 0.24517141 1.0433631 0
1.0365589 0.24654029 1.0404239 0
1.0665821 0.25303203 1.0391319 0
1.0911118 0.25469866 1.0275282 0
-0.49261779 0.28376547 1.0349993 0
-0.24111919 0.27902091 1.044443 0
-0.23804402 0.28174216 1.0276114 0
0.5053345 0.2841855 1.0378801 0
0.51196891 0.28616259 1.0254606 0
1.0687375 0.285034 1.0426055 0
1.0900446 0.28372332 1.0278872 0
-0.49252638 0.3142997 1.0350996 0
-0.24090505 0.30708206 1.0407143 0
-0.23797984 0.31195688 1.0275029 0
0.50509715 0.31623656 1.0397681 0
0.51332939 0.31644532 1.0224051 0
1.0667406 0.31414145 1.0419157 0
1.0902411 0.31423599 1.0269572 0
-0.4926658 0.34490246 1.0355926 0
-0.24179684 0.33771694 1.0456716 0
-0.23847023 0.34202856 1.028357 0
0.50510639 0.34312505 1.0444405 0
0.52537328 0.346044 1.0336176 0
0.55101675 0.34902322 1.0375781 0
1.0469947 0.34924349 1.0493481 0
1.0649188 0.3443504 1.0399404 0
1.0899502 0.34402916 1.0259149 0
-0.49238119 0.37535155 1.0350391 0
-0.24104464 0.37142807 1.0435795 0
-0.23866397 0.37425452 1.0286489 0
0.55939651 0.37029612 1.033926 0
0.58449441 0.3832095 1.0360074 0
1.0447705 0.37477127 1.0477 0
1.0648315 0.37439018 1.037364 0
1.0878649 0.37424153 1.0246072 0
-0.49250022 0.40423593 1.0349128 0
-0.24120729 0.40708241 1.0404859 0
-0.23808561 0.40784144 1.0277852 0
0.59843028 0.39031297 1.027972 0
0.61365938 0.39657184 1.0342336 0
0.6418075 0.41084006 1.0351665 0
1.0408685 0.40553549 1.0471511 0
1.0654466 0.40470538 1.0347028 0
1.0860375 0.39926371 1.024006 0
-0.4926264 0.43510592 1.0359159 0
-0.24151851 0.44302568 1.0425291 0
-0.23822966 0.43816489 1.0301002 0
0.62709373 0.4404631 1.0201399 0
0.65115464 0.43431926 1.0322753 0
1.0366225 0.43667918 1.0454048 0
1.063004 0.43472308 1.0339813 0
-0.4929212 0.46511555 1.0348095 0
-0.41578299 0.47006232 1.0357579 0
-0.2404242 0.46458387 1.0480233 0
-0.23785208 0.46050149 1.027324 0
0.63194817 0.45767063 1.0205508 0
1.0149209 0.4722982 1.0470358 0
1.0352486 0.46615273 1.0406702 0
1.0558316 0.46016103 1.0326258 0
-0.49299777 0.49436504 1.0343881 0
-0.41570237 0.49352586 1.0366954 0
-0.24100202 0.48702765 1.0400233 0
-0.2380223 0.49344477 1.0286553 0
0.9571836 0.50337422 1.047735 0
0.97796744 0.50172776 1.0355129 0
1.0034279 0.4904851 1.0350329 0
1.0304549 0.4833717 1.0278689 0
-0.49284473 0.5243296 1.0352322 0
-0.41587675 0.52312386 1.0340533 0
-0.24132116 0.52635002 1.0441767 0
-0.23823857 0.52608335 1.0282676 0
0.56338531 0.53139514 1.0332216 0
0.89273751 0.535339 1.047587 0
0.91575056 0.53094006 1.0397414 0
0.94329709 0.52130562 1.0344137 0
0.96970099 0.51329654 1.0265721 0
-0.49260646 0.55431402 1.0354961 0
-0.41615975 0.55289966 1.0375983 0
-0.24389544 0.56371731 1.0395548 0
-0.23863567 0.55412877 1.0338115 0
0.56315988 0.55517995 1.0337775 0
0.83330917 0.56334782 1.044906 0
0.8569535 0.55966645 1.0375164 0
0.88426012 0.55199999 1.0316858 0
0.9103542 0.54642111 1.0255971 0
-0.49299505 0.58387041 1.0342603 0
-0.41499549 0.58411849 1.0335085 0
-0.30997014 0.58285743 1.0382477 0
-0.28465092 0.57673335 1.0343347 0
-0.25876281 0.57535201 1.035004 0
0.56408 0.5863865 1.0323877 0
0.57171822 0.59209692 1.0477531 0
0.77692938 0.59330481 1.0458293 0
0.80028999 0.58709186 1.0426294 0
0.82460552 0.58540046 1.0347414 0
0.85348916 0.58421248 1.0258327 0
0.87686121 0.5733124 1.022115 0
-0.41489017 0.61647683 1.0344925 0
-0.36149928 0.61604315 1.0314665 0
-0.35718399 0.62251306 1.0269156 0
-0.31280696 0.61586446 1.034986 0
0.56519586 0.61407858 1.0321611 0
0.57293826 0.62179351 1.0427289 0
0.74498963 0.62951583 1.0454919 0
0.76986343 0.61469448 1.0415111 0
0.79289645 0.61603802 1.0323073 0
0.82045078 0.61257219 1.0261792 0
0.84447032 0.60677791 1.0218377 0
-0.49010313 0.65853548 1.0341882 0
-0.46582639 0.65822971 1.0353603 0
-0.43478757 0.65845531 1.0350686 0
-0.41638982 0.64711273 1.0352873 0
-0.34171629 0.63464648 1.0351678 0
-0.32437328 0.63439482 1.0357391 0
0.56790829 0.63582015 1.0278566 0
0.58191347 0.64905041 1.0353009 0
0.67964411 0.65551728 1.0475543 0
0.70450592 0.65226471 1.0425627 0
0.73381811 0.64672953 1.0373474 0
0.76334894 0.64408004 1.0298617 0
0.78919607 0.63802701 1.0230507 0
0.81427062 0.63138556 1.0207498 0
0.59364915 0.66434211 1.0291355 0
0.61327797 0.6692698 1.0357548 0
0.64586723 0.66873676 1.0355606 0
0.67426169 0.66504788 1.0347995 0
0.70261699 0.66276473 1.031998 0
0.72894347 0.66023195 1.0222143 0
0.61738992 -0.66508484 1.0570066 0
0.6401726 -0.66157603 1.0526562 0
-0.4905138 -0.65839386 1.0646667 0
-0.46503463 -0.65859926 1.0654478 0
-0.43405604 -0.65823609 1.0650176 0
-0.41867203 -0.64661676 1.0646032 0
-0.34360313 -0.635149 1.0637184 0
-0.32679281 -0.63309711 1.0665081 0
0.59276426 -0.64005619 1.0620745 0
0.61132509 -0.64908457 1.0693498 0
0.64573407 -0.64381844 1.0634915 0
0.67276746 -0.64074695 1.0563082 0
0.70507699 -0.63517177 1.0635533 0
0.73235762 -0.63412851 1.0622087 0
-0.42051467 -0.62232047 1.0777905 0
-0.41877744 -0.61441928 1.0645921 0
-0.31837299 -0.61712426 1.0651836 0
0.58405131 -0.61558813 1.0644988 0
0.65182543 -0.62502331 1.0754826 0
0.67676032 -0.61835927 1.0713451 0
0.69382745 -0.62577504 1.0696707 0
0.74234772 -0.61602271 1.0709001 0
0.75820851 -0.61065614 1.0564798 0
-0.48990905 -0.5838362 1.0653818 0
-0.42042738 -0.5843823 1.0729756 0
-0.41901189 -0.58630508 1.0645401 0
-0.31005767 -0.58276647 1.0674398 0
-0.28370059 -0.5769884 1.0651513 0
-0.26151496 -0.57482362 1.0646553 0
0.57787222 -0.58527422 1.064394 0
0.68296504 -0.59935123 1.079868 0
0.73999226 -0.59556353 1.0763844 0
0.76751703 -0.58490652 1.06546 0
0.78994453 -0.57537037 1.0544132 0
-0.48899236 -0.55624479 1.0655603 0
-0.42069331 -0.55345857 1.0779489 0
-0.41838217 -0.5584361 1.0620468 0
-0.24706833 -0.55757177 1.0660901 0
0.56881553 -0.54226172 1.0508913 0
0.57644033 -0.55554318 1.06525 0
0.77281278 -0.56632209 1.0738161 0
0.79712886 -0.55927169 1.0693145 0
0.82428187 -0.55113149 1.0648123 0
0.85042399 -0.54518718 1.0574483 0
0.87383163 -0.54020488 1.0512737 0
-0.48886737 -0.5252586 1.0653629 0
-0.24463806 -0.52580976 1.0644819 0
0.56931162 -0.535806 1.052447 0
0.57918388 -0.52867478 1.0653064 0
0.82712889 -0.53987789 1.0763642 0
0.85649592 -0.53186882 1.0712761 0
0.88561541 -0.52516568 1.06484 0
0.91115749 -0.51865798 1.059564 0
0.93495941 -0.51286757 1.05462 0
-0.48927322 -0.49485421 1.0658317 0
-0.24425216 -0.49371663 1.0639435 0
0.89376664 -0.5054943 1.079031 0
0.91629374 -0.49756318 1.0752379 0
0.94469905 -0.49341506 1.0665754 0
0.97414237 -0.4874509 1.0592129 0
0.99675357 -0.48281991 1.0538161 0
-0.48909092 -0.4645721 1.0652196 0
-0.24446534 -0.46547928 1.0658808 0
0.92369831 -0.46932006 1.0785946 0
0.94537419 -0.4645865 1.0729727 0
0.97364205 -0.46640083 1.0640174 0
1.0031054 -0.46267974 1.0547687 0
-0.48915985 -0.43363887 1.0650247 0
-0.42005891 -0.43282777 1.0706855 0
-0.41802257 -0.42588446 1.0645547 0
-0.24492601 -0.4366411 1.0658598 0
0.65054619 -0.42592645 1.0598495 0
0.92560416 -0.44259536 1.0797529 0
0.94662082 -0.43556184 1.0758446 0
0.97470218 -0.43565759 1.0664476 0
1.0046062 -0.43311501 1.0569769 0
1.0249634 -0.42921367 1.0515722 0
-0.48934564 -0.40424812 1.0645335 0
-0.4205457 -0.40859559 1.0754033 0
-0.41896254 -0.40414277 1.0668846 0
-0.24467482 -0.40494147 1.0645791 0
0.61651659 -0.39674655 1.0640422 0
0.64089501 -0.40989989 1.0647789 0
0.9496541 -0.40755948 1.0769289 0
0.97530484 -0.40408179 1.0693665 0
1.0049831 -0.40427527 1.0602649 0
1.0276058 -0.40329483 1.0528815 0
-0.48936081 -0.37352961 1.0636781 0
-0.24482325 -0.3734735 1.0657767 0
0.56481755 -0.36768088 1.0628614 0
0.58468324 -0.38056403 1.0653274 0
0.60171783 -0.38886398 1.0664976 0
0.95584071 -0.37855589 1.0785109 0
0.97563845 -0.37373573 1.0725033 0
1.0056038 -0.37542453 1.0624715 0
1.032621 -0.37312165 1.0540079 0
-0.48929527 -0.34365591 1.0638298 0
-0.24468477 -0.343404 1.0654904 0
0.5605529 -0.34456593 1.0628428 0
0.95723999 -0.35153565 1.0798745 0
0.97528696 -0.34465462 1.0750231 0
1.0044016 -0.34558526 1.0655098 0
1.0348176 -0.34450492 1.0555987 0
-0.48914996 -0.31451166 1.0652988 0
-0.24436212 -0.31632152 1.0638615 0
0.55916095 -0.31426111 1.0625986 0
0.95712364 -0.32691026 1.0795726 0
0.98005754 -0.31485742 1.0760518 0
1.004896 -0.3143827 1.068135 0
1.0349087 -0.31582534 1.0580034 0
1.0515943 -0.31300935 1.0511067 0
-0.48909312 -0.28471249 1.0650464 0
-0.24455939 -0.28602639 1.0650716 0
0.55741161 -0.28678173 1.0643978 0
0.98218626 -0.28650683 1.0775615 0
1.0054041 -0.28387955 1.0702922 0
1.0356035 -0.28490266 1.0607505 0
1.0542558 -0.28335854 1.0528482 0
-0.48897332 -0.25536087 1.065245 0
-0.24442707 -0.25462189 1.064941 0
0.54673052 -0.25630978 1.0646592 0
0.88747239 -0.25316358 1.0759541 0
0.91555679 -0.25383076 1.0691013 0
0.94501173 -0.25641069 1.0651774 0
0.97499615 -0.26058239 1.0662575 0
1.0037496 -0.26016551 1.0627797 0
1.033998 -0.26040524 1.0586061 0
1.0544266 -0.2625024 1.0537081 0
-0.48892429 -0.22496425 1.0655068 0
-0.24455073 -0.22216552 1.0650282 0
0.54616809 -0.22603084 1.0637623 0
0.89052099 -0.23100945 1.0761924 0
0.91639024 -0.22548619 1.0680369 0
0.94521648 -0.22421363 1.0563338 0
0.96196538 -0.21143314 1.0503402 0
-0.48907799 -0.19452384 1.0649805 0
-0.24464588 -0.19326189 1.0661556 0
0.54875308 -0.19655827 1.0654311 0
0.92353839 -0.20808053 1.0782523 0
0.94666392 -0.19446278 1.0652665 0
0.96226096 -0.19129485 1.0503311 0
-0.48913741 -0.16449444 1.0654042 0
-0.24437237 -0.16627447 1.0637511 0
0.54946208 -0.17202458 1.0644518 0
0.94782948 -0.16495053 1.0654671 0
0.96177673 -0.16235501 1.0507358 0
-0.48920608 -0.13425542 1.0649985 0
-0.24435887 -0.13587263 1.0648394 0
0.56380129 -0.13164796 1.0663463 0
0.94791394 -0.13494183 1.0656234 0
0.96158475 -0.13333604 1.0509421 0
-0.48911005 -0.10454124 1.0660238 0
-0.24448292 -0.10432932 1.065599 0
0.56381553 -0.10489642 1.0641134 0
0.89456487 -0.09989243 1.0786347 0
0.9152711 -0.10402384 1.0718896 0
0.94543964 -0.10671336 1.0621909 0
0.96199185 -0.10396084 1.0512004 0
-0.48938361 -0.075029038 1.0639118 0
-0.24486664 -0.071595199 1.0675064 0
0.56445032 -0.075365923 1.0653442 0
0.89451993 -0.074783564 1.0779989 0
0.91498518 -0.07597515 1.0713131 0
0.94568181 -0.075184308 1.060145 0
0.9649322 -0.072242156 1.0519879 0
-0.48925063 -0.044911548 1.0649501 0
-0.24402702 -0.044559464 1.0628339 0
0.5568381 -0.042883832 1.0648549 0
0.89874762 -0.051396038 1.0774704 0
0.91511136 -0.043578949 1.0735891 0
0.94449121 -0.044856153 1.0627401 0
0.96743387 -0.043664381 1.053171 0
-0.48914728 -0.014717037 1.0653527 0
-0.2446291 -0.017557999 1.0661339 0
0.54694623 -0.015367085 1.0660126 0
0.91628563 -0.01480546 1.0755579 0
0.94564128 -0.014141717 1.0648316 0
0.96855521 -0.015303263 1.0547535 0
-0.48908007 0.014880797 1.0655816 0
-0.2445683 0.013127178 1.0655469 0
0.56882143 0.017452683 1.0784607 0
0.89962626 0.020290893 1.0795529 0
0.91547132 0.012175885 1.0758448 0
0.94444853 0.01251486 1.06534 0
0.96770936 0.01245652 1.0551993 0
-0.48908076 0.044603005 1.0652635 0
-0.24460272 0.042792264 1.065438 0
0.56540418 0.048154421 1.0669847 0
0.89729524 0.050325748 1.0794826 0
0.91465914 0.044596385 1.0733854 0
0.94487786 0.044625323 1.0627115 0
0.96626967 0.044238992 1.0532223 0
-0.48902088 0.074629262 1.0647513 0
-0.24464884 0.073536702 1.0652128 0
0.49500415 0.065003984 1.0654293 0
0.5269646 0.067039236 1.0641733 0
0.55237818 0.066133156 1.0650864 0
0.896348 0.075968325 1.0779828 0
0.9144299 0.074568637 1.0708195 0
0.94621593 0.074835628 1.0599626 0
0.9633193 0.075214915 1.0519235 0
-0.48890656 0.10467697 1.0653826 0
-0.24432652 0.10460451 1.0644045 0
0.56554663 0.10730334 1.0715063 0
0.89371026 0.10180139 1.0779071 0
0.91540581 0.10346292 1.0714862 0
0.94551486 0.10613146 1.0613537 0
0.96120435 0.1059283 1.0507704 0
-0.48893064 0.13462158 1.0651392 0
-0.24429151 0.13689862 1.0652316 0
0.56298941 0.13566852 1.0679851 0
0.94733542 0.13527586 1.0667135 0
0.961106 0.14155638 1.0503945 0
-0.48902571 0.16434696 1.0655683 0
-0.41727838 0.17037749 1.0681939 0
-0.24437357 0.16551396 1.0653487 0
0.55491209 0.162478 1.0668708 0
0.94721371 0.16420726 1.0655594 0
0.96082592 0.16551614 1.0506933 0
-0.48903078 0.19429435 1.0647509 0
-0.42024547 0.19926715 1.0756826 0
-0.41862211 0.19172028 1.0669438 0
-0.24439001 0.19255912 1.0650507 0
0.5493241 0.18193352 1.0726033 0
0.92631781 0.20710635 1.0742357 0
0.94623041 0.19337684 1.0648431 0
0.96126628 0.19318184 1.0502448 0
-0.48905793 0.22431624 1.065019 0
-0.24388406 0.22286361 1.0618632 0
0.8901152 0.22924055 1.0754557 0
0.91524738 0.22395909 1.0681809 0
0.94382089 0.22414449 1.056038 0
0.96069777 0.21496944 1.0500966 0
-0.48895493 0.25504789 1.0654802 0
-0.24503845 0.25926751 1.0664334 0
0.49628147 0.24859205 1.0660803 0
0.51940918 0.24793975 1.065269 0
0.88642615 0.25245506 1.075302 0
0.91617692 0.25323674 1.068489 0
0.94464874 0.25622523 1.0659541 0
0.97560161 0.25858822 1.0647047 0
1.0058402 0.25915611 1.0628154 0
1.034892 0.25980487 1.0583158 0
1.0541114 0.26239893 1.0523189 0
-0.48907211 0.28556529 1.0653468 0
-0.24560209 0.29103106 1.0694456 0
0.48926118 0.28369811 1.0672519 0
0.98082429 0.2861951 1.0774299 0
1.0038674 0.28527102 1.0702233 0
1.0355047 0.28490463 1.0598379 0
1.0541548 0.28479668 1.0518986 0
-0.4891355 0.31409159 1.0647936 0
-0.24527848 0.31659278 1.0684727 0
0.49270874 0.31428218 1.0630847 0
0.97696745 0.31456289 1.075992 0
1.0037111 0.31663269 1.0670704 0
1.0337003 0.31663266 1.0574365 0
1.0510356 0.30903217 1.0512661 0
-0.48896036 0.34464473 1.0649275 0
-0.2447582 0.33851993 1.0664011 0
0.50022906 0.34412122 1.0662102 0
0.52481693 0.34412128 1.0654188 0
0.55603087 0.34692472 1.065398 0
0.95789647 0.34964332 1.0787553 0
0.97660094 0.34519306 1.0734497 0
1.0050111 0.34651199 1.0642976 0
1.0333374 0.34542438 1.0554054 0
-0.48901784 0.37499636 1.0649955 0
-0.24476299 0.37066671 1.0638447 0
0.56509554 0.3676739 1.0621763 0
0.58456409 0.37934154 1.0656619 0
0.60380584 0.38835981 1.0670748 0
0.95392025 0.37929711 1.0781386 0
0.97461474 0.37422881 1.0716836 0
1.0055486 0.37443706 1.0612988 0
1.0289781 0.37472597 1.0535067 0
-0.48879695 0.40517697 1.0651176 0
-0.24501628 0.40350482 1.0652199 0
0.61886209 0.39615121 1.0635675 0
0.64217341 0.4091759 1.0654604 0
0.95011413 0.40462399 1.0768108 0
0.97474653 0.40286213 1.0694577 0
1.0048934 0.40394682 1.0594127 0
1.0279971 0.4021264 1.052256 0
-0.48895496 0.43420663 1.0662748 0
-0.24534251 0.4375352 1.0658913 0
0.65191323 0.43361354 1.0649678 0
0.92770386 0.4366349 1.0790238 0
0.94670933 0.43382782 1.074645 0
0.97457403 0.43156934 1.0664057 0
1.0042723 0.43513101 1.056682 0
1.025867 0.43014127 1.0518694 0
-0.48937133 0.46455422 1.0643641 0
-0.41811132 0.47419292 1.0695395 0
-0.24558447 0.47344312 1.0677505 0
0.92280167 0.46755663 1.0779709 0
0.94461918 0.46432894 1.0718789 0
0.97397679 0.46485433 1.0625862 0
1.00284 0.46291342 1.0534781 0
-0.48956823 0.494791 1.0632987 0
-0.4181982 0.49592856 1.0655583 0
-0.24371007 0.48921472 1.0627468 0
0.89711827 0.49897394 1.0792389 0
0.91632813 0.49702162 1.0754806 0
0.94135237 0.49596155 1.0659494 0
0.97419912 0.48729092 1.057765 0
0.99707091 0.48189694 1.0514826 0
-0.48901293 0.52600604 1.0671299 0
-0.41766033 0.52545995 1.063904 0
-0.24494855 0.52535892 1.0652791 0
0.56942838 0.53262049 1.050127 0
0.57468939 0.53333843 1.0652695 0
0.83368593 0.53826904 1.0746787 0
0.85684806 0.53400695 1.0677505 0
0.88431406 0.52406293 1.0662975 0
0.91233444 0.51767087 1.0594587 0
0.93579775 0.51277763 1.0515107 0
-0.48910749 0.55537701 1.0646732 0
-0.41810524 0.55381006 1.0649631 0
-0.24693568 0.56089389 1.0643299 0
0.56950486 0.54829592 1.0512469 0
0.57652956 0.55574626 1.0650209 0
0.7675631 0.56740445 1.0779827 0
0.79967827 0.55888218 1.0677366 0
0.82468671 0.5520488 1.0634972 0
0.85347283 0.54817683 1.0542529 0
-0.48888358 0.58323157 1.0652232 0
-0.41831812 0.58452564 1.0664357 0
-0.30770826 0.57786578 1.0661776 0
-0.28499368 0.57667404 1.0659027 0
-0.26098263 0.57462323 1.0640796 0
0.57958102 0.58649927 1.0669998 0
0.74264324 0.5966171 1.0733622 0
0.76573551 0.58482772 1.0651906 0
0.79457861 0.57345891 1.0518849 0
-0.41792971 0.61527693 1.0654896 0
-0.36434284 0.62131488 1.0641983 0
-0.31816372 0.61775988 1.0649668 0
0.58611965 0.61527383 1.0665115 0
0.65373909 0.62552923 1.0763931 0
0.67824888 0.6173045 1.07253 0
0.69597054 0.62563115 1.067006 0
0.74327242 0.61744374 1.0685905 0
0.75779986 0.61431593 1.0535314 0
-0.48978698 0.6583432 1.0641392 0
-0.46388456 0.65837038 1.0656738 0
-0.43478712 0.65847832 1.064742 0
-0.41777885 0.64750475 1.0666068 0
-0.3446182 0.63509738 1.0646615 0
-0.32701388 0.63377666 1.0649608 0
0.59170532 0.64008129 1.0598242 0
0.61031932 0.64919406 1.0689667 0
0.64529037 0.64612484 1.0631107 0
0.67329055 0.64231747 1.0576178 0
0.70730531 0.63469195 1.0626658 0
0.72919446 0.63487589 1.0625787 0
0.6160484 0.66538197 1.0563841 0
0.63988584 0.66463464 1.0536021 0
-0.48905087 -0.65875942 1.0919994 0
-0.46469453 -0.65843147 1.09557 0
-0.42996114 -0.65379828 1.0955362 0
-0.4195258 -0.64074224 1.0837822 0
-0.36177847 -0.6351943 1.1017666 0
-0.34399214 -0.63483077 1.0956761 0
-0.32954597 -0.63029397 1.0968641 0
0.61552662 -0.63424873 1.0818692 0
0.68501437 -0.63364863 1.0986807 0
0.70500302 -0.63553625 1.093769 0
0.7262342 -0.63174862 1.0885911 0
-0.42140442 -0.61686707 1.0953326 0
-0.41964647 -0.60958403 1.0847175 0
-0.33023959 -0.62739789 1.1059477 0
-0.32298309 -0.61730069 1.0965415 0
0.59604967 -0.60884351 1.0834851 0
0.61449915 -0.61373693 1.092603 0
0.64173126 -0.61328113 1.0881947 0
0.67666107 -0.61769414 1.092502 0
0.71930212 -0.62942874 1.1082394 0
0.73289317 -0.61269033 1.0944256 0
-0.48688677 -0.58572876 1.0929332 0
-0.42169115 -0.58527905 1.0955617 0
-0.31248289 -0.58051455 1.0966489 0
-0.28494301 -0.57685155 1.0941961 0
-0.26440424 -0.57387727 1.093966 0
0.59212214 -0.58242619 1.0882542 0
0.6090433 -0.58776802 1.1030269 0
0.64792663 -0.58855641 1.1031086 0
0.67644 -0.58426911 1.0965199 0
0.70755333 -0.58424366 1.097773 0
0.73087782 -0.59028798 1.0913589 0
0.75703698 -0.5727694 1.0856265 0
-0.48532733 -0.55494493 1.0958861 0
-0.42123681 -0.5605731 1.0960505 0
-0.419631 -0.55629927 1.086033 0
-0.25217289 -0.55763924 1.0952599 0
0.59131759 -0.55454236 1.0907284 0
0.60297477 -0.55786633 1.10552 0
0.67643571 -0.56416982 1.1072431 0
0.69622934 -0.55314076 1.1059079 0
0.73955852 -0.55374408 1.1038671 0
0.7645601 -0.55293727 1.0964803 0
0.79028183 -0.54637319 1.0874447 0
-0.48552814 -0.52496487 1.0954823 0
-0.24973303 -0.52645135 1.0938309 0
0.59227246 -0.52516586 1.0952625 0
0.60097224 -0.53027087 1.1088765 0
0.70273435 -0.52390128 1.1072307 0
0.7339204 -0.52994925 1.1078767 0
0.7675181 -0.52601391 1.1056759 0
0.79570603 -0.5254854 1.0985376 0
0.82515168 -0.52468657 1.0903276 0
0.85309619 -0.51684797 1.0875134 0
0.88248634 -0.51142973 1.0822829 0
-0.48547336 -0.49510297 1.0960066 0
-0.24954538 -0.49398074 1.0932773 0
0.60625762 -0.50602996 1.1032991 0
0.70942718 -0.49426541 1.107839 0
0.72223699 -0.49026543 1.1073601 0
0.77105832 -0.49492463 1.1081495 0
0.79604983 -0.49484256 1.1028118 0
0.82406497 -0.49590534 1.0964552 0
0.85560066 -0.49343273 1.0900987 0
0.88284618 -0.49439034 1.0844502 0
0.90555012 -0.48905063 1.0807443 0
-0.48559985 -0.46433571 1.0950723 0
-0.24964657 -0.4646714 1.0937206 0
0.7222898 -0.46327269 1.1095454 0
0.77649939 -0.47620398 1.1090536 0
0.79449743 -0.46618649 1.1068158 0
0.82638615 -0.46435449 1.0998096 0
0.85586745 -0.46492833 1.0933822 0
0.8849147 -0.46484655 1.0872017 0
0.91024262 -0.46350268 1.0822005 0
0.93095231 -0.45006028 1.0800548 0
-0.48561522 -0.43428105 1.0954138 0
-0.42163703 -0.42561111 1.0991652 0
-0.41967711 -0.42727184 1.0837139 0
-0.24992613 -0.4371776 1.0944762 0
0.80221689 -0.43664092 1.1079646 0
0.82609624 -0.43421257 1.1035684 0
0.8550514 -0.43560195 1.096856 0
0.885746 -0.43447062 1.0907547 0
0.91288322 -0.43562895 1.0847208 0
0.93349618 -0.42659357 1.0811669 0
-0.48561388 -0.40454495 1.0944812 0
-0.4219408 -0.41184896 1.0978816 0
-0.41992709 -0.40181684 1.0841548 0
-0.24953187 -0.40529945 1.0928057 0
0.61901951 -0.39504224 1.0940653 0
0.6350221 -0.40465936 1.0882361 0
0.80819285 -0.41594523 1.1095295 0
0.8251794 -0.40524986 1.1065559 0
0.85508078 -0.40394634 1.1005378 0
0.88392639 -0.4058755 1.0943012 0
0.91558504 -0.40330648 1.0877281 0
0.93620843 -0.40402761 1.0826967 0
-0.48564717 -0.37430555 1.0948642 0
-0.2496009 -0.37365821 1.094035 0
0.56920028 -0.36369637 1.0837256 0
0.58520812 -0.37483841 1.0953331 0
0.60582042 -0.38690713 1.0958353 0
0.83023924 -0.37929344 1.1081768 0
0.85666394 -0.3732329 1.1032137 0
0.88546473 -0.37533543 1.0964682 0
0.91550934 -0.37484315 1.0899274 0
0.94093746 -0.37423909 1.0836214 0
-0.48548555 -0.34474838 1.095481 0
-0.24977946 -0.3436605 1.0932882 0
0.56756777 -0.34474817 1.0829575 0
0.57512075 -0.34465912 1.1010915 0
0.83728534 -0.34819254 1.1092627 0
0.85290521 -0.34560472 1.1062807 0
0.88403273 -0.34492609 1.0993495 0
0.91463971 -0.34373319 1.0931064 0
0.94509184 -0.34533149 1.0848197 0
0.96038663 -0.33764836 1.0803003 0
-0.48592421 -0.3136102 1.0925235 0
-0.24959953 -0.31664553 1.0936015 0
0.56715357 -0.31198296 1.0872928 0
0.57330781 -0.31641859 1.1023341 0
0.86007959 -0.31715748 1.1072668 0
0.88584131 -0.31480524 1.1020163 0
0.91564322 -0.3146449 1.0954059 0
0.94456446 -0.31549731 1.0873492 0
0.96452659 -0.31103748 1.0813898 0
-0.48542905 -0.28467599 1.0948801 0
-0.24956034 -0.285963 1.0936389 0
0.56485528 -0.28263316 1.0931453 0
0.57132167 -0.28983045 1.1074727 0
0.79915202 -0.27807617 1.1059219 0
0.82646179 -0.2764971 1.1008865 0
0.85693496 -0.28157857 1.1023101 0
0.88535804 -0.28357905 1.1001117 0
0.91426909 -0.2829597 1.0955917 0
0.94469172 -0.28319225 1.0883751 0
0.96817559 -0.28349119 1.0820537 0
-0.48539177 -0.25499329 1.0952042 0
-0.24958411 -0.25451872 1.093635 0
0.55420178 -0.25808778 1.0940471 0
0.79983175 -0.25514942 1.1062213 0
0.82475758 -0.25367421 1.0970509 0
0.85484201 -0.25501916 1.0870866 0
0.87955695 -0.2590175 1.0823691 0
0.91617185 -0.26716143 1.0820384 0
0.93580151 -0.268655 1.0813379 0
0.96235925 -0.26812321 1.0814729 0
-0.48545426 -0.22485776 1.09545 0
-0.249308 -0.22339013 1.0924674 0
0.55463177 -0.22495551 1.0936253 0
0.80696344 -0.23977138 1.108556 0
0.82951927 -0.23475929 1.1014719 0
0.85685891 -0.22801347 1.0960336 0
0.88097847 -0.22018078 1.0909256 0
0.90718406 -0.21248838 1.0830157 0
-0.4855589 -0.19461209 1.0955003 0
-0.24935071 -0.19276884 1.0923282 0
0.55632931 -0.19565231 1.0932261 0
0.86522967 -0.19471481 1.1078272 0
0.88564491 -0.19520637 1.0993018 0
0.91438872 -0.19408557 1.0874181 0
0.93145436 -0.19171922 1.0806133 0
-0.48561954 -0.16459414 1.0950948 0
-0.24964412 -0.16546364 1.0941896 0
0.55967563 -0.17106448 1.0929185 0
0.86611342 -0.16817279 1.108758 0
0.88421887 -0.16460533 1.1016275 0
0.91465378 -0.16455942 1.088524 0
0.93336022 -0.16505374 1.0812643 0
-0.4854978 -0.13476092 1.0956786 0
-0.24934404 -0.1362222 1.0929084 0
0.56852949 -0.13624105 1.0876082 0
0.57356668 -0.13166629 1.1033866 0
0.82903075 -0.12180263 1.1065068 0
0.8582778 -0.12653273 1.1050895 0
0.88464063 -0.13414386 1.1013041 0
0.91522354 -0.13527988 1.0898966 0
0.93381733 -0.13071263 1.0817958 0
-0.48551616 -0.10560697 1.0953338 0
-0.24934311 -0.10474634 1.0925547 0
0.56862289 -0.10610455 1.0863317 0
0.5735147 -0.10190829 1.1014597 0
0.8270393 -0.10514303 1.1047655 0
0.85465431 -0.10427395 1.0941062 0
0.88135189 -0.10724152 1.085108 0
0.91247457 -0.11750669 1.0849643 0
0.93170261 -0.11823209 1.0820543 0
-0.48538291 -0.074294612 1.0965681 0
-0.24898341 -0.071422569 1.0906668 0
0.56934887 -0.067666449 1.0859593 0
0.57285094 -0.076515883 1.0975602 0
0.8272571 -0.075192317 1.1051019 0
0.85408485 -0.074251518 1.0944459 0
0.88063335 -0.074534371 1.0842296 0
-0.48539042 -0.046328899 1.096261 0
-0.2501466 -0.045674253 1.0972414 0
0.55848712 -0.039362743 1.0939035 0
0.57406932 -0.05000804 1.0997429 0
0.82801729 -0.044407666 1.1049951 0
0.85698569 -0.04614754 1.0938678 0
0.88432068 -0.043758482 1.0840786 0
-0.48546126 -0.015505251 1.0956904 0
-0.25005344 -0.017071528 1.096488 0
0.55393267 -0.015152809 1.0963613 0
0.57371998 -0.00069833512 1.0938418 0
0.82545632 -0.015710022 1.1068269 0
0.85348535 -0.015133628 1.0968632 0
0.88530934 -0.016056789 1.085839 0
0.90146679 -0.002073288 1.080699 0
-0.48549372 0.01491491 1.095524 0
-0.25016293 0.013430902 1.0970067 0
0.56965578 0.014001397 1.0817931 0
0.57412016 0.014660779 1.0968065 0
0.82917976 0.012119521 1.1056776 0
0.85524726 0.012765142 1.096426 0
0.88471037 0.012254872 1.0861285 0
-0.48556483 0.044645999 1.0951488 0
-0.25004047 0.042883653 1.0962392 0
0.56922513 0.045740087 1.0836933 0
0.57376039 0.044949092 1.0981998 0
0.82752341 0.044515077 1.1050619 0
0.8539539 0.044469293 1.0947148 0
0.88161671 0.043694593 1.0845789 0
-0.48548615 0.074572399 1.0953287 0
-0.25030008 0.074035831 1.0975833 0
0.49238941 0.066719733 1.095961 0
0.52425659 0.065227255 1.0854979 0
0.56472087 0.068788804 1.0843701 0
0.57319742 0.076949298 1.0985522 0
0.8267194 0.074455649 1.1051149 0
0.85519135 0.075169355 1.0937313 0
0.88114291 0.074645989 1.0836964 0
-0.48531911 0.10464898 1.0956376 0
-0.24985045 0.10572005 1.0963923 0
0.56823289 0.10812487 1.0844285 0
0.5741654 0.099729516 1.103686 0
0.80967361 0.11417425 1.1093955 0
0.82601291 0.10605016 1.1045097 0
0.85496318 0.10725565 1.0941323 0
0.88216251 0.1097417 1.0865077 0
0.9124493 0.11657409 1.0845867 0
0.93669003 0.11763117 1.0817894 0
-0.48536882 0.13424681 1.0951362 0
-0.42004764 0.14289033 1.0947099 0
-0.41926765 0.14758456 1.0834719 0
-0.2499897 0.13750786 1.0971087 0
0.56791663 0.13627982 1.0870509 0
0.57279801 0.13476908 1.1012841 0
0.82959455 0.12145173 1.1066992 0
0.85826558 0.126231 1.1065127 0
0.88562346 0.13437727 1.101722 0
0.91579509 0.13361049 1.0895063 0
0.93379581 0.13469757 1.0818164 0
-0.48534587 0.164619 1.0953255 0
-0.42060369 0.16088605 1.1035727 0
-0.41966558 0.16506693 1.0894983 0
-0.25014353 0.16644917 1.0981303 0
0.56190836 0.16636872 1.0918115 0
0.57224995 0.15733528 1.1035398 0
0.86665076 0.16465445 1.1085665 0
0.88510638 0.16476828 1.1007835 0
0.91599929 0.16513331 1.087806 0
0.93256778 0.16081901 1.080653 0
-0.48551124 0.19504398 1.0951207 0
-0.42044553 0.19738555 1.1042869 0
-0.41914383 0.19720042 1.0910709 0
-0.24925704 0.18816009 1.093169 0
0.55857962 0.18744141 1.1010976 0
0.86394578 0.19423196 1.1076568 0
0.88428974 0.1943658 1.0994718 0
0.91425866 0.19477974 1.0869049 0
0.93201351 0.20231199 1.0811021 0
-0.48552674 0.22493839 1.0943547 0
-0.42062122 0.21675497 1.0971181 0
-0.25010678 0.22753958 1.0965755 0
0.80302262 0.23894393 1.1079286 0
0.82605237 0.23481257 1.1026531 0
0.85619289 0.22703888 1.0953804 0
0.88242203 0.21778107 1.0914663 0
0.90690106 0.2110886 1.0837979 0
-0.4854117 0.25437313 1.0953001 0
-0.25007448 0.2558547 1.096475 0
0.47376966 0.25263897 1.0978451 0
0.49412739 0.25144985 1.0943341 0
0.52053434 0.253461 1.0961516 0
0.79865474 0.25403941 1.1061257 0
0.8254624 0.25547138 1.096018 0
0.85494465 0.254704 1.0859666 0
0.8828876 0.26469055 1.0838315 0
0.91746509 0.26754659 1.0825351 0
0.9455924 0.26876116 1.0820674 0
0.96901131 0.2693069 1.0807674 0
-0.48551276 0.2840552 1.0953811 0
-0.24976915 0.2869271 1.0940031 0
0.47314304 0.28371915 1.0964161 0
0.48013911 0.2909745 1.0819148 0
0.79741144 0.27721381 1.1058645 0
0.82422453 0.27869427 1.1025459 0
0.85668296 0.28475296 1.1039028 0
0.88446146 0.28233352 1.099044 0
0.91604424 0.28344485 1.0944264 0
0.9448508 0.28382471 1.0883988 0
0.96706516 0.28063989 1.0821395 0
-0.48552623 0.31516814 1.0947677 0
-0.24976847 0.31915483 1.0934932 0
0.47328109 0.31585938 1.0972689 0
0.48239881 0.31584665 1.0822506 0
0.83773088 0.32893789 1.1098611 0
0.85717827 0.31817043 1.1071171 0
0.88414609 0.31410995 1.1015157 0
0.91444016 0.31385192 1.0948026 0
0.9451043 0.31402856 1.0862496 0
0.96323091 0.3058998 1.0812405 0
-0.48521128 0.34521812 1.095868 0
-0.24993327 0.34482628 1.0951363 0
0.474314 0.34129921 1.1001819 0
0.49308625 0.34332451 1.0940441 0
0.52456564 0.34165883 1.096226 0
0.55711758 0.34144649 1.0929784 0
0.57515579 0.34882173 1.0989811 0
0.83375239 0.34858423 1.1085774 0
0.85386199 0.34521374 1.1050878 0
0.88684857 0.34697497 1.0979149 0
0.91647774 0.34316081 1.0921749 0
0.94311416 0.34476221 1.0844879 0
-0.48577204 0.37453562 1.0938053 0
-0.25014269 0.36669704 1.0937983 0
0.58500844 0.3735888 1.0950432 0
0.607602 0.38619629 1.0975219 0
0.8288427 0.37984523 1.1077025 0
0.8551389 0.37248453 1.102218 0
0.88525319 0.37526301 1.0957636 0
0.91636986 0.37332413 1.0891228 0
0.94058859 0.37598687 1.0825443 0
-0.4850702 0.40501791 1.0956683 0
-0.25017959 0.39955121 1.0939612 0
0.62011677 0.3949056 1.0916634 0
0.63856721 0.40605527 1.0884676 0
0.80606794 0.41153243 1.1096199 0
0.82279772 0.40387264 1.1062464 0
0.85531127 0.40531293 1.0992951 0
0.88534808 0.40678588 1.0919827 0
0.91635168 0.40678561 1.0859003 0
0.9366197 0.40042627 1.0823513 0
-0.4853369 0.43482673 1.0956157 0
-0.2506817 0.4366293 1.0970067 0
0.64522272 0.44063613 1.0880539 0
0.79906476 0.43759924 1.1077404 0
0.8264423 0.43518353 1.1020801 0
0.8546136 0.43596962 1.0953325 0
0.8858819 0.43550855 1.0893581 0
0.91410983 0.43356749 1.0833002 0
0.9359262 0.42176187 1.0823696 0
-0.48566869 0.46410245 1.0945561 0
-0.42109096 0.47937506 1.0925781 0
-0.41996816 0.47882891 1.100001 0
-0.24899201 0.46691424 1.0933243 0
0.62730891 0.45741069 1.1038544 0
0.77315634 0.47173187 1.1089895 0
0.79649633 0.46395376 1.1044415 0
0.82390273 0.46457863 1.0992287 0
0.85654461 0.46397319 1.0930394 0
0.88374716 0.46898121 1.086725 0
0.91049868 0.45999575 1.0819287 0
-0.48564374 0.49566501 1.0957189 0
-0.4214507 0.49595046 1.1032622 0
-0.41918296 0.49371022 1.0856216 0
-0.25021988 0.49193648 1.0946776 0
0.59987265 0.50918555 1.1099534 0
0.71015847 0.50370944 1.1084745 0
0.72162938 0.49565357 1.107304 0
0.7677846 0.49828991 1.1070926 0
0.79382318 0.49685857 1.102066 0
0.82609665 0.49459082 1.0951842 0
0.85489416 0.4937816 1.0896859 0
0.88680339 0.49134138 1.0837733 0
0.90790051 0.48774284 1.0820063 0
-0.48558715 0.52476835 1.0962613 0
-0.42081308 0.52304101 1.098977 0
-0.41934446 0.5243265 1.0870615 0
-0.25049365 0.5264951 1.0971838 0
0.59170634 0.52766156 1.096174 0
0.6005277 0.53896546 1.1060433 0
0.70443636 0.52726185 1.1065861 0
0.72930598 0.5272783 1.1068115 0
0.76570308 0.52285266 1.105415 0
0.79689616 0.52585316 1.0969685 0
0.82494551 0.52575833 1.090097 0
0.85129702 0.51952171 1.0868591 0
0.87709522 0.51101339 1.0830923 0
-0.48573411 0.55474311 1.093671 0
-0.42052925 0.55527639 1.0974846 0
-0.41907617 0.55877191 1.0861448 0
-0.25343519 0.56073141 1.0969521 0
0.59055203 0.55297965 1.0905679 0
0.60286075 0.5587942 1.1058817 0
0.67972839 0.56260514 1.1066015 0
0.70020652 0.5545963 1.1029485 0
0.7330386 0.5498876 1.1038953 0
0.76668787 0.55391753 1.0923736 0
0.80029047 0.54571402 1.0852095 0
0.81844771 0.54127705 1.0808119 0
-0.48774362 0.58443046 1.0945885 0
-0.42124462 0.58663565 1.1011764 0
-0.41950938 0.59185642 1.0880706 0
-0.30851492 0.57667667 1.096186 0
-0.2844606 0.57672721 1.0956368 0
-0.26524371 0.57450843 1.0945351 0
0.59352779 0.58391088 1.0897382 0
0.6098848 0.58680737 1.1046467 0
0.64867193 0.58638573 1.1044925 0
0.67504323 0.58532995 1.0970439 0
0.70642674 0.58356023 1.0991685 0
0.72815847 0.59080988 1.0926317 0
0.75806934 0.57099354 1.0861063 0
-0.42053348 0.61652321 1.0999571 0
-0.41971517 0.61894417 1.0905914 0
-0.37037489 0.61813289 1.0922294 0
-0.32184488 0.61909789 1.093737 0
0.59751582 0.60816169 1.085531 0
0.61229146 0.613814 1.0927372 0
0.64286077 0.61107582 1.0906584 0
0.67752022 0.61640853 1.0959439 0
0.73242706 0.61135972 1.0940827 0
-0.49077299 0.65822196 1.0957838 0
-0.46493003 0.65862197 1.0964305 0
-0.43353292 0.65642434 1.0946159 0
-0.41975066 0.64249212 1.0897847 0
-0.36169076 0.63362491 1.094643 0
-0.34462696 0.63491887 1.0953466 0
-0.32811984 0.63048315 1.0932016 0
0.61516881 0.634206 1.0829591 0
0.63043433 0.63419008 1.0803607 0
0.68562382 0.63356841 1.1037416 0
0.70262939 0.63492149 1.0952258 0
0.72397959 0.63287824 1.0868857 0
-0.49048239 -0.65893233 1.1234353 0
-0.46564546 -0.65858263 1.1277813 0
-0.43092436 -0.65308058 1.124107 0
-0.36331695 -0.63540637 1.1296618 0
-0.3447521 -0.63458496 1.1251615 0
0.67933095 -0.63487983 1.1266834 0
0.70340616 -0.63455182 1.1240574 0
-0.42370227 -0.61468768 1.1249605 0
-0.33252135 -0.62676907 1.1281551 0
-0.32607976 -0.61583483 1.1226391 0
0.65756071 -0.61145896 1.1346953 0
0.66602868 -0.61489791 1.1195837 0
0.71438479 -0.61582828 1.1302795 0
0.72402591 -0.61052287 1.1164657 0
-0.4839218 -0.58382285 1.125239 0
-0.423453 -0.58411008 1.1269118 0
-0.33175683 -0.59486067 1.1283423 0
-0.31102458 -0.57755244 1.1260583 0
-0.28379044 -0.576478 1.1249775 0
-0.2672542 -0.57163888 1.1224651 0
0.62280726 -0.57803464 1.115495 0
0.64153719 -0.5760147 1.1133016 0
0.67649674 -0.5884462 1.1295283 0
0.70678586 -0.59067553 1.1255767 0
-0.48169836 -0.55347347 1.1252933 0
-0.42363915 -0.55933642 1.1243131 0
-0.25832424 -0.5577442 1.12685 0
0.61567515 -0.55546826 1.1198052 0
0.64486325 -0.55460185 1.1233852 0
0.67319596 -0.55162883 1.1145258 0
-0.48204952 -0.52529019 1.1257833 0
-0.47995746 -0.53819358 1.1390791 0
-0.25538206 -0.52400106 1.1253564 0
0.61414236 -0.5259046 1.1223309 0
0.64479733 -0.52395904 1.1279162 0
0.67620808 -0.52542865 1.1174661 0
0.69568169 -0.52162075 1.111102 0
0.73458976 -0.52436143 1.1124754 0
0.75715053 -0.51179498 1.110275 0
-0.48184714 -0.4952867 1.1252481 0
-0.47999775 -0.48448381 1.1383804 0
-0.25483328 -0.49455371 1.1237861 0
0.61625379 -0.49822941 1.1252478 0
0.64514899 -0.49403369 1.1290174 0
0.67423475 -0.49477467 1.1216165 0
0.69764233 -0.4962928 1.1138474 0
0.73605126 -0.4922905 1.11505 0
0.75686783 -0.49265426 1.1117363 0
-0.48229387 -0.46506119 1.1239825 0
-0.25531858 -0.4659023 1.125015 0
0.61800605 -0.46694705 1.1282668 0
0.64536232 -0.46455011 1.1301595 0
0.67485738 -0.46422818 1.1234839 0
0.70051086 -0.4641878 1.1166295 0
0.73245221 -0.46384102 1.1170759 0
0.76389503 -0.46329406 1.1133299 0
0.78036094 -0.45152783 1.1106018 0
-0.48209795 -0.43489 1.1254644 0
-0.42418018 -0.42947605 1.1279616 0
-0.25520283 -0.43452045 1.1250119 0
0.61961544 -0.43435249 1.1308396 0
0.64600223 -0.4350633 1.1315697 0
0.67621785 -0.43471244 1.1242006 0
0.70238233 -0.43539134 1.1178319 0
0.73308313 -0.43432295 1.1207577 0
0.76430535 -0.4341529 1.1166612 0
0.78854072 -0.43252242 1.1119528 0
-0.48206952 -0.40449813 1.1246598 0
-0.47999609 -0.41387379 1.1394751 0
-0.42327994 -0.41268393 1.1259288 0
-0.25498909 -0.40354931 1.1248028 0
0.6198473 -0.40375933 1.1327007 0
0.64517432 -0.40434253 1.1328526 0
0.67480844 -0.40447006 1.1259748 0
0.69898158 -0.40469372 1.119957 0
0.73455274 -0.40528607 1.1235765 0
0.76542836 -0.40464491 1.1191819 0
0.79367816 -0.40461442 1.1135385 0
0.81465137 -0.39268517 1.1103199 0
-0.48203427 -0.37498927 1.1247677 0
-0.47999656 -0.36115411 1.139936 0
-0.25521255 -0.37431601 1.1248659 0
0.59173065 -0.37065428 1.123616 0
0.61346751 -0.3763791 1.1312245 0
0.64415878 -0.37476286 1.1339443 0
0.67517877 -0.37512723 1.1272495 0
0.69966328 -0.3751936 1.1211423 0
0.73486167 -0.37490693 1.1253994 0
0.76339847 -0.37581092 1.1211871 0
0.79636675 -0.37550983 1.1154373 0
0.81833291 -0.3699483 1.111756 0
-0.48192513 -0.34399417 1.1255305 0
-0.25538182 -0.34671569 1.1262631 0
0.58912379 -0.34403288 1.1283177 0
0.61591065 -0.34495056 1.137162 0
0.6448471 -0.34470427 1.1354567 0
0.67443246 -0.34542933 1.1283966 0
0.69935292 -0.34561846 1.1224867 0
0.73515719 -0.3448467 1.1270609 0
0.76456809 -0.344255 1.1232269 0
0.79373628 -0.34513485 1.1189157 0
0.82298332 -0.34297359 1.1132112 0
-0.48200914 -0.31466398 1.1244522 0
-0.47998691 -0.31683594 1.1392682 0
-0.25526971 -0.3140654 1.1245422 0
0.58582169 -0.31622475 1.1300799 0
0.61278886 -0.3159315 1.1381999 0
0.64681506 -0.3149519 1.1361711 0
0.67628199 -0.31414431 1.1292297 0
0.69984961 -0.31588298 1.1238424 0
0.7362842 -0.3150439 1.1289566 0
0.76532412 -0.31454945 1.1254015 0
0.79623628 -0.31425592 1.1210771 0
0.82602876 -0.31425744 1.1151346 0
0.8462519 -0.31152156 1.1109571 0
-0.48195127 -0.28436282 1.1241018 0
-0.25501245 -0.28415266 1.1248835 0
0.56615806 -0.27357185 1.1238199 0
0.58075529 -0.28713232 1.1305246 0
0.60530227 -0.2949563 1.1393992 0
0.64754182 -0.28914532 1.1368954 0
0.67501187 -0.28413677 1.131446 0
0.6999622 -0.28510025 1.1245981 0
0.73651761 -0.28492409 1.1265453 0
0.76576906 -0.28359395 1.1184857 0
0.79350317 -0.2894935 1.1147997 0
0.82786596 -0.29216307 1.1149896 0
0.84950322 -0.29422265 1.1121155 0
-0.48210621 -0.25317234 1.123069 0
-0.47998607 -0.26311898 1.1392021 0
-0.25502458 -0.25368142 1.1247467 0
0.56245416 -0.25742328 1.127178 0
0.68540394 -0.26711124 1.1382238 0
0.70461476 -0.2652168 1.1322259 0
0.73717636 -0.261228 1.1299707 0
0.76626956 -0.25397655 1.123773 0
0.78704 -0.25132641 1.1147547 0
-0.48199672 -0.22438242 1.1252259 0
-0.25514674 -0.22522359 1.1255018 0
0.5645498 -0.22522196 1.1281203 0
0.77939034 -0.23844066 1.139972 0
0.7962063 -0.22614479 1.1325326 0
0.8234244 -0.22270392 1.1212895 0
0.84827346 -0.21762535 1.1134765 0
-0.48199809 -0.19493899 1.1254045 0
-0.25530505 -0.19467416 1.1252149 0
0.56634676 -0.19286238 1.1277812 0
0.79843265 -0.19580491 1.135524 0
0.82503891 -0.19463708 1.1245508 0
0.84997374 -0.19421837 1.1141865 0
-0.48194137 -0.16449395 1.1253018 0
-0.25495777 -0.16463248 1.1244669 0
0.56684744 -0.17693287 1.1278963 0
0.57880461 -0.15768756 1.1323924 0
0.80106342 -0.16571106 1.1363413 0
0.8250711 -0.16487418 1.1264844 0
0.85216558 -0.16373374 1.1149979 0
-0.48198408 -0.13472983 1.125405 0
-0.47998542 -0.13220948 1.139817 0
-0.25502807 -0.13393062 1.1248301 0
0.58048695 -0.13286909 1.1283367 0
0.68099523 -0.1350642 1.1368343 0
0.70041198 -0.13050592 1.1295017 0
0.73722565 -0.12965058 1.1300528 0
0.76581866 -0.13010094 1.1271263 0
0.796188 -0.13392211 1.1281651 0
0.82370073 -0.13646843 1.1239715 0
0.85235453 -0.13795547 1.115393 0
-0.48185208 -0.10465252 1.1255964 0
-0.25503552 -0.10412613 1.1243597 0
0.57963878 -0.10472994 1.1221671 0
0.68532884 -0.10547763 1.1376015 0
0.70019823 -0.10524801 1.1305603 0
0.73744774 -0.10361788 1.1282296 0
0.76485103 -0.10529003 1.1222256 0
0.79416084 -0.1044277 1.1155111 0
0.81216723 -0.10387465 1.1109359 0
-0.48181602 -0.075334109 1.1252693 0
-0.25485981 -0.074265368 1.1240436 0
0.58129007 -0.074807256 1.1249635 0
0.68538439 -0.075286508 1.1382385 0
0.70152831 -0.074340656 1.129809 0
0.73685175 -0.074740984 1.1282977 0
0.76451451 -0.075554729 1.1217737 0
0.79602253 -0.075218864 1.1155044 0
0.81213599 -0.071404859 1.1107273 0
-0.48184142 -0.04396072 1.125258 0
-0.25510764 -0.043685976 1.124984 0
0.5608263 -0.036432948 1.1171281 0
0.58206731 -0.045637049 1.1257184 0
0.68537176 -0.045130253 1.1375976 0
0.70147246 -0.044812649 1.1298599 0
0.7371273 -0.046135381 1.1277395 0
0.76551342 -0.045686189 1.1218493 0
0.79718083 -0.045221206 1.1156036 0
0.81250423 -0.05390764 1.111209 0
-0.48183903 -0.015018946 1.1257349 0
-0.25490955 -0.016158583 1.1238976 0
0.55925673 -0.014961506 1.1159897 0
0.5834595 -0.015514753 1.1277027 0
0.68518531 -0.014807113 1.1375455 0
0.70225996 -0.015089694 1.1293368 0
0.73748046 -0.015671372 1.1278478 0
0.76605403 -0.014751663 1.1221893 0
0.79847562 -0.015289096 1.1156636 0
0.81563371 -0.0032921494 1.1103104 0
-0.48192176 0.014647942 1.1253824 0
-0.47999161 0.003408324 1.1397102 0
-0.25491133 0.014325848 1.123968 0
0.55785203 0.00025702454 1.1123636 0
0.58282059 0.015178445 1.1248176 0
0.68507332 0.014240505 1.1381377 0
0.70176429 0.013893108 1.1295713 0
0.73459262 0.014685372 1.1281224 0
0.76434559 0.012956893 1.1223632 0
0.79563028 0.012359733 1.1164081 0
0.81439376 0.009965661 1.1107903 0
-0.48191851 0.04482697 1.1253378 0
-0.25500771 0.044163488 1.12438 0
0.47830543 0.05851331 1.1275423 0
0.49407786 0.058246635 1.1279093 0
0.58149415 0.044982996 1.1232097 0
0.68510073 0.043690477 1.137777 0
0.70244163 0.045411102 1.1293412 0
0.73541671 0.0439662 1.1279842 0
0.76491773 0.044402517 1.1219068 0
0.79545611 0.045673102 1.1157348 0
0.81374574 0.043350346 1.1111684 0
-0.48193097 0.074726589 1.1252699 0
-0.25519088 0.073992312 1.125831 0
0.47843093 0.070497185 1.126954 0
0.48908991 0.063619465 1.1120045 0
0.58081996 0.082401663 1.1229342 0
0.68526375 0.074271232 1.1378301 0
0.70084053 0.073635012 1.1295874 0
0.73525196 0.074810728 1.1275576 0
0.76555854 0.075033128 1.1218388 0
0.79446512 0.074002966 1.1153129 0
0.8123771 0.072131276 1.110755 0
-0.48186937 0.10470274 1.125264 0
-0.25478563 0.10432007 1.1244178 0
0.58055544 0.10514959 1.1263257 0
0.68471181 0.10470842 1.137311 0
0.70195901 0.10366956 1.1290338 0
0.73729503 0.10476337 1.1276687 0
0.76465952 0.10336126 1.1216601 0
0.79555136 0.1051246 1.1147646 0
0.81165111 0.10180274 1.1106315 0
-0.4817856 0.13509649 1.1249856 0
-0.4799425 0.13303941 1.1394109 0
-0.42345127 0.13615112 1.1276262 0
-0.2547771 0.13395359 1.1240129 0
0.58104831 0.13447051 1.1297907 0
0.67948133 0.13483612 1.1364419 0
0.70286161 0.13513745 1.1304548 0
0.73491138 0.13038445 1.1309463 0
0.76538128 0.13065875 1.1282805 0
0.79667026 0.13207859 1.1267289 0
0.82434487 0.13501289 1.1232911 0
0.85195231 0.1361406 1.1152114 0
-0.48185834 0.16503595 1.1246299 0
-0.47995424 0.15663797 1.1394897 0
-0.42274195 0.16685306 1.1238995 0
-0.25501639 0.16465454 1.1253731 0
0.56669515 0.17338295 1.1206936 0
0.57595253 0.16288087 1.1258507 0
0.80029207 0.16458683 1.1363169 0
0.82527727 0.16566834 1.125982 0
0.85185134 0.16447631 1.115092 0
-0.48187312 0.19462441 1.1252444 0
-0.47987688 0.18571441 1.1394993 0
-0.42259979 0.19581221 1.1274173 0
-0.25479144 0.19207744 1.1247518 0
0.56406868 0.19420703 1.1263212 0
0.79782498 0.19417703 1.135228 0
0.82482064 0.19576918 1.1242138 0
0.8492173 0.19500445 1.1138231 0
-0.48192176 0.22476986 1.1246551 0
-0.47999692 0.22869562 1.1389636 0
-0.42220786 0.21660221 1.1259099 0
-0.25509855 0.22300507 1.1261741 0
0.774463 0.23911303 1.138002 0
0.79604936 0.22708113 1.1309204 0
0.82473123 0.22130235 1.1216131 0
0.84853685 0.21733665 1.1129749 0
-0.48196572 0.25520515 1.1247562 0
-0.25522798 0.25461864 1.1248122 0
0.44938266 0.25903261 1.137367 0
0.46482038 0.25543535 1.1264164 0
0.4942753 0.25720021 1.1253612 0
0.5225563 0.25926748 1.1260207 0
0.68332767 0.26695096 1.1381803 0
0.70545763 0.26445627 1.1322982 0
0.73612911 0.26087344 1.129487 0
0.76562828 0.25366512 1.1229078 0
0.78508782 0.24996185 1.1151952 0
-0.48198721 0.28489137 1.1241488 0
-0.47998965 0.28879428 1.1392784 0
-0.25554606 0.28643554 1.1261059 0
0.45788023 0.28732917 1.1246727 0
0.64727974 0.28607216 1.1375947 0
0.676341 0.28340387 1.1310992 0
0.70266753 0.285698 1.1239488 0
0.7324124 0.2853615 1.1271415 0
0.76511902 0.28321987 1.1181884 0
0.79316878 0.2905044 1.11659 0
0.82321376 0.29404125 1.1148674 0
0.84864169 0.29248437 1.111486 0
-0.48190147 0.31490824 1.1250187 0
-0.47992158 0.31441498 1.139091 0
-0.25547838 0.31989759 1.1244392 0
0.45739844 0.31763309 1.1266505 0
0.62634009 0.31791329 1.1391084 0
0.64613885 0.3153387 1.1360146 0
0.67303461 0.31715766 1.1299604 0
0.70206529 0.31264448 1.1239229 0
0.73389369 0.31548828 1.1281972 0
0.76380914 0.31593058 1.1251942 0
0.79549253 0.3152664 1.1201373 0
0.82499808 0.31284127 1.1146244 0
0.84324962 0.30886799 1.1112343 0
-0.48170325 0.34412822 1.1259949 0
-0.47976923 0.34881079 1.1395514 0
-0.25602841 0.34031814 1.1302046 0
0.4497647 0.33170235 1.138936 0
0.46671954 0.34111905 1.126948 0
0.49543667 0.34065086 1.124509 0
0.52640605 0.33904517 1.1259516 0
0.55521584 0.33771783 1.1249111 0
