# .PCD v0.7 - Point Cloud Data file format
VERSION 0.7
FIELDS x y z rgb
SIZE 4 4 4 4
TYPE F F F F
COUNT 1 1 1 1
WIDTH 1355
HEIGHT 1
VIEWPOINT 0 0 0 1 0 0 0
POINTS 1355
DATA ascii
0.31671304 -0.4135384 0.39835486 0
0.32264036 -0.41471118 0.39906034 0
0.33847767 -0.41325492 0.39446509 0
0.34494478 -0.41716069 0.39820603 0
0.35477144 -0.41705269 0.39659894 0
0.37326938 -0.41569275 0.39641532 0
0.38158637 -0.41355103 0.39968979 0
0.39444083 -0.41229552 0.39677033 0
0.40073234 -0.41468924 0.39879441 0
0.41662139 -0.41158456 0.39299452 0
0.42599148 -0.41639394 0.39804679 0
0.44427997 -0.4196493 0.39973637 0
0.4513219 -0.41747278 0.39669964 0
1.1538838 -0.4161908 0.39251328 0
1.161528 -0.41735524 0.39717028 0
1.1789423 -0.41347331 0.39951673 0
1.1853145 -0.41620272 0.39607969 0
1.2032059 -0.41524643 0.39912853 0
1.2185689 -0.41810244 0.39645824 0
1.2367417 -0.41331547 0.39848265 0
1.2435514 -0.4159314 0.39783534 0
1.2643021 -0.41466755 0.39861375 0
1.2789816 -0.414015 0.39113224 0
1.2886907 -0.41669959 0.39912412 0
1.2973791 -0.41066021 0.3955853 0
1.3080884 -0.41653222 0.39392909 0
0.053609777 -0.40880936 0.39646503 0
0.062078763 -0.40314215 0.39949247 0
0.084302112 -0.40771002 0.39811921 0
0.091713473 -0.40703624 0.39480838 0
0.11374073 -0.40398139 0.3977997 0
0.12277274 -0.4064154 0.39826316 0
0.13011651 -0.40834779 0.39733908 0
0.14324968 -0.40077657 0.39731503 0
0.15273361 -0.40369767 0.39876804 0
0.17535238 -0.40445942 0.39314795 0
0.20479576 -0.40548056 0.39686596 0
0.21417217 -0.4057886 0.39807999 0
0.22810213 -0.406748 0.39626348 0
0.23571531 -0.40431541 0.3952843 0
0.24387161 -0.40454501 0.39549619 0
0.25911421 -0.40487641 0.39959261 0
0.2728774 -0.40741247 0.39840102 0
0.28715712 -0.40045041 0.39970848 0
0.31437343 -0.40196627 0.39687333 0
0.32745367 -0.40360993 0.39695022 0
0.34034544 -0.40796441 0.39906928 0
0.36525065 -0.40465277 0.39782295 0
0.37208205 -0.4047882 0.39863005 0
0.39440531 -0.40219373 0.39618748 0
0.42534941 -0.40667266 0.39810359 0
0.43232983 -0.40712947 0.39884874 0
0.44735736 -0.40880889 0.39850345 0
0.45105428 -0.40629405 0.39509207 0
0.46901304 -0.40435618 0.39153442 0
0.49640268 -0.40485352 0.39644772 0
0.50553209 -0.40822238 0.39392841 0
1.1448785 -0.40359682 0.39916071 0
1.1614977 -0.40685004 0.39610836 0
1.1771084 -0.40258259 0.3965531 0
1.1817423 -0.40670413 0.39175606 0
1.2087599 -0.40119857 0.39591658 0
1.2353011 -0.40122813 0.3944059 0
1.2654399 -0.40491194 0.39917243 0
1.2765912 -0.4034521 0.39589402 0
1.2888347 -0.40709227 0.39954844 0
1.3009075 -0.40040797 0.39695394 0
1.3193489 -0.4046244 0.39762995 0
1.3302389 -0.40049142 0.39871967 0
0.053268243 -0.39938325 0.39738652 0
0.064698264 -0.39476222 0.39629975 0
0.083887503 -0.39688462 0.39739746 0
0.11336951 -0.39459962 0.39872226 0
0.1477453 -0.39003319 0.39551196 0
0.15063803 -0.39106673 0.39583489 0
0.17576413 -0.39672273 0.39592314 0
0.18481939 -0.39594311 0.39716136 0
0.20335571 -0.39396828 0.398449 0
0.22871916 -0.3985011 0.39817271 0
0.2356271 -0.39433688 0.39711598 0
0.24358277 -0.39129466 0.3975943 0
0.28462714 -0.39851421 0.39763865 0
0.2943458 -0.39221686 0.39777538 0
0.31522924 -0.39354748 0.39817771 0
0.3377685 -0.39528531 0.39661905 0
0.34490114 -0.39729041 0.39800483 0
0.3689695 -0.39639729 0.39312267 0
0.38459402 -0.39187258 0.39651582 0
0.3982417 -0.39323491 0.39692095 0
0.41695243 -0.39726132 0.39928231 0
0.42479938 -0.39722699 0.39856678 0
0.43156785 -0.39696544 0.39846337 0
0.44340736 -0.39886111 0.39857009 0
0.45637208 -0.39872235 0.39687216 0
0.46928459 -0.39122981 0.39923513 0
0.47461551 -0.39702624 0.39684024 0
0.4821673 -0.39333099 0.39476368 0
1.1610764 -0.3973195 0.39629042 0
1.1724786 -0.39452451 0.39673707 0
1.1895462 -0.39792603 0.39634117 0
1.2067999 -0.39545125 0.39605537 0
1.2359959 -0.39489812 0.39625487 0
1.2469426 -0.39521664 0.39153931 0
1.2707628 -0.39074725 0.39684641 0
1.2897485 -0.39583343 0.39810941 0
1.3064634 -0.3990559 0.39628482 0
0.096059367 -0.38544959 0.39565691 0
0.11241166 -0.3836717 0.39750597 0
0.12574558 -0.38318413 0.39172161 0
0.14422433 -0.38278359 0.39547172 0
0.15433733 -0.38462752 0.39975137 0
0.17551212 -0.38762969 0.39715287 0
0.18276577 -0.38974303 0.39777288 0
0.19889025 -0.3821637 0.39752373 0
0.20849459 -0.38205117 0.39469147 0
0.215277 -0.38590354 0.3976208 0
0.22637634 -0.38489598 0.39406821 0
0.24324648 -0.38209313 0.39864752 0
0.26142579 -0.38244504 0.39478713 0
0.28445357 -0.38423342 0.39645588 0
0.3165881 -0.38397664 0.39769995 0
0.32357234 -0.38501614 0.39887258 0
0.33706337 -0.38269585 0.39279637 0
0.35235935 -0.38649935 0.39560565 0
0.3665995 -0.38485068 0.3972998 0
0.37215513 -0.38016957 0.39732778 0
0.39468068 -0.3853671 0.39929733 0
0.40481895 -0.3835327 0.39693794 0
0.41651875 -0.38485473 0.39647743 0
0.42391223 -0.38647574 0.39759108 0
0.44304329 -0.38703531 0.3966206 0
0.4531011 -0.38094157 0.39962807 0
0.47389978 -0.38348073 0.39753565 0
0.49524099 -0.38214296 0.39870059 0
1.1607302 -0.38751119 0.3962234 0
1.1791364 -0.38183206 0.39660618 0
1.1814083 -0.38633889 0.39072868 0
1.2055088 -0.38558549 0.39574099 0
1.2172035 -0.38981122 0.39740965 0
1.2342991 -0.38230366 0.3949244 0
1.267265 -0.38152045 0.3948499 0
1.2890931 -0.38575834 0.39750367 0
1.2953728 -0.38381928 0.39864168 0
1.3063372 -0.38886064 0.3958405 0
1.3187233 -0.38504666 0.39771509 0
1.3263594 -0.38725346 0.39560768 0
1.3547541 -0.38515633 0.39558494 0
0.054254461 -0.37893933 0.39670867 0
0.06174593 -0.37045306 0.39601812 0
0.084750459 -0.37572068 0.39546317 0
0.098257229 -0.37109917 0.39833948 0
0.11849086 -0.37493557 0.39751086 0
0.12791423 -0.37818927 0.39781627 0
0.13994579 -0.37705988 0.39357683 0
0.15390722 -0.37036866 0.3947266 0
0.17561702 -0.37921113 0.39922521 0
0.18137698 -0.37397593 0.39725113 0
0.19999866 -0.3723976 0.39741668 0
0.20752911 -0.37428612 0.39768764 0
0.21527295 -0.37731069 0.39944398 0
0.22526328 -0.37531322 0.39495096 0
0.23582582 -0.37502021 0.39822102 0
0.24221103 -0.37131613 0.39797091 0
0.25671297 -0.37370223 0.39790589 0
0.26276678 -0.3747701 0.39727995 0
0.29652005 -0.37811774 0.39452231 0
0.30979866 -0.37275928 0.39866921 0
0.31391245 -0.37432355 0.39625838 0
0.3374427 -0.37815064 0.39999244 0
0.34322852 -0.37653106 0.39716789 0
0.365017 -0.37646621 0.39764366 0
0.37865347 -0.37331623 0.39912257 0
0.38838905 -0.37226075 0.39611015 0
0.39171153 -0.37443966 0.39950609 0
0.40358061 -0.37175173 0.39493787 0
0.42207927 -0.37280172 0.39342108 0
0.43048805 -0.3779704 0.39949811 0
0.4479937 -0.37953132 0.39838728 0
0.46776587 -0.37392253 0.39649078 0
0.47298425 -0.3784005 0.39491379 0
1.1778806 -0.37362641 0.39861038 0
1.1800097 -0.37908548 0.39371344 0
1.2013072 -0.37405795 0.39635366 0
1.2359811 -0.37417668 0.39858803 0
1.2436975 -0.37073034 0.39747152 0
1.2583777 -0.37851399 0.39989612 0
1.2694067 -0.372482 0.39857423 0
1.2747246 -0.37586945 0.39812779 0
1.3006266 -0.37482041 0.39588836 0
1.3187579 -0.37449187 0.39699492 0
1.3249131 -0.37288588 0.39812857 0
1.3345722 -0.37960404 0.39853212 0
1.3539327 -0.37092441 0.39640176 0
1.3612372 -0.37814397 0.39661133 0
1.3853861 -0.37108916 0.39917707 0
0.063277051 -0.36859053 0.39414558 0
0.079816744 -0.36466879 0.39598605 0
0.081789896 -0.36526603 0.39672741 0
0.09796302 -0.3616206 0.39940628 0
0.1109225 -0.36324066 0.39781952 0
0.12796657 -0.3694219 0.39959976 0
0.14626376 -0.36975545 0.39581382 0
0.18400078 -0.36512059 0.39895716 0
0.20856409 -0.36504096 0.39869449 0
0.2349699 -0.36459368 0.39801341 0
0.25520462 -0.36165494 0.39583993 0
0.26458102 -0.36363286 0.39530155 0
0.29179209 -0.36772698 0.39538848 0
0.30915588 -0.3612296 0.39690095 0
0.31669575 -0.3630411 0.39710003 0
0.32518584 -0.36498708 0.39878988 0
0.33561748 -0.36506718 0.39663327 0
0.34476262 -0.36581868 0.39599487 0
0.35103494 -0.36659783 0.39592934 0
0.36579829 -0.36597413 0.39761233 0
0.3769868 -0.36031741 0.39587152 0
0.38812882 -0.36347121 0.39762962 0
0.39572066 -0.36528534 0.39566684 0
0.41531295 -0.36657733 0.39473161 0
0.42191797 -0.36827463 0.39975226 0
0.44432324 -0.36678094 0.3956711 0
0.47253579 -0.36565417 0.39755169 0
0.4934482 -0.3630864 0.39407372 0
1.175465 -0.36369199 0.39711565 0
1.2074143 -0.36176604 0.39589688 0
1.2175637 -0.36749691 0.39443696 0
1.2282568 -0.36823481 0.39983842 0
1.2360879 -0.3635065 0.39831138 0
1.2588681 -0.36685294 0.39792976 0
1.2673372 -0.36949939 0.39237723 0
1.273991 -0.36144227 0.39873016 0
1.289055 -0.36559218 0.39747059 0
1.3190542 -0.36334962 0.39570007 0
1.3244306 -0.36242908 0.39729223 0
1.3351175 -0.36798114 0.39663291 0
1.3539563 -0.36031359 0.39576814 0
1.3614062 -0.36811298 0.39608201 0
0.05924635 -0.35716885 0.39281759 0
0.062034417 -0.35747927 0.39344776 0
0.077270195 -0.35132664 0.39278802 0
0.088965461 -0.3578679 0.39759126 0
0.11792903 -0.35797924 0.39573526 0
0.12461238 -0.35446185 0.39446545 0
0.13952081 -0.35591573 0.39694738 0
0.14802079 -0.35533088 0.39624712 0
0.16876583 -0.35663003 0.39808771 0
0.1740977 -0.35871619 0.39937028 0
0.1976196 -0.35173172 0.39774838 0
0.20349376 -0.35133213 0.39525947 0
0.21333854 -0.35596889 0.39857805 0
0.22511856 -0.35774916 0.39836153 0
0.23100905 -0.35521001 0.3977361 0
0.25487047 -0.35308427 0.39843795 0
0.26399726 -0.35533875 0.39790538 0
0.28583425 -0.35532254 0.39672157 0
0.29505008 -0.35352868 0.39561737 0
0.30854291 -0.35286635 0.39930877 0
0.31381613 -0.35471839 0.39579079 0
0.33593363 -0.35201567 0.39300162 0
0.36462277 -0.35513586 0.39795426 0
0.37654501 -0.35089844 0.3967832 0
0.39607018 -0.35293168 0.39672449 0
0.4023661 -0.35200185 0.39559099 0
0.4139294 -0.35615844 0.39817509 0
0.42234224 -0.35568684 0.39691645 0
0.43954557 -0.35748261 0.39670464 0
0.44607395 -0.35871547 0.39804015 0
0.47514671 -0.35892242 0.39574248 0
1.1773623 -0.35318702 0.39802879 0
1.1887635 -0.35674447 0.39437556 0
1.1983401 -0.35616559 0.39841378 0
1.2087287 -0.35797995 0.39136216 0
1.2149323 -0.35225528 0.39985895 0
1.228376 -0.35721368 0.3986735 0
1.25904 -0.3557722 0.39672709 0
1.2671255 -0.35223597 0.39693722 0
1.2891706 -0.35461539 0.39640316 0
1.2952212 -0.35129565 0.39554513 0
1.3260118 -0.35165089 0.39782611 0
1.3358012 -0.35598201 0.39441642 0
1.3625981 -0.3564207 0.39566097 0
1.385934 -0.35534447 0.39934927 0
1.3936106 -0.3533532 0.39242721 0
0.084358498 -0.34712905 0.39870071 0
0.1087728 -0.34463376 0.39683613 0
0.11701839 -0.34546441 0.39960989 0
0.14647298 -0.34125155 0.39856264 0
0.15388541 -0.34369534 0.39992008 0
0.18229084 -0.34853762 0.39783797 0
0.20260625 -0.34372538 0.39883801 0
0.22286229 -0.34419698 0.39482757 0
0.25557941 -0.34270924 0.39735186 0
0.26521248 -0.34594268 0.39873776 0
0.28680152 -0.34878606 0.39821133 0
0.29070586 -0.34817761 0.39653727 0
0.3083908 -0.34506196 0.39585221 0
0.31469351 -0.34096307 0.39583418 0
0.33544105 -0.34545583 0.39683771 0
0.34012717 -0.34681004 0.39866683 0
0.36555284 -0.34453791 0.39778259 0
0.38708907 -0.34415168 0.39891097 0
0.39484292 -0.3452813 0.39601418 0
0.41419405 -0.34577864 0.39808667 0
0.42030209 -0.34694475 0.39864334 0
0.44500834 -0.34654683 0.39571494 0
0.47400063 -0.34570521 0.39556926 0
1.1748587 -0.34327048 0.39670917 0
1.1871608 -0.34998673 0.39808986 0
1.2058693 -0.34342307 0.39752904 0
1.2289764 -0.34498566 0.39626491 0
1.2363254 -0.34624404 0.39713493 0
1.2429267 -0.34545678 0.39724436 0
1.2580494 -0.34712428 0.39833236 0
1.2684592 -0.34231108 0.39855346 0
1.2745148 -0.34949321 0.39659151 0
1.2882458 -0.34481066 0.39643249 0
1.2963752 -0.34475559 0.39656392 0
1.3170551 -0.34586376 0.39874136 0
1.3241764 -0.34208077 0.39763796 0
1.3586162 -0.34471148 0.39850152 0
1.3655123 -0.34480685 0.3950865 0
1.3879133 -0.34898585 0.39796928 0
1.3935081 -0.34628552 0.39812037 0
1.4161519 -0.34819382 0.39805993 0
0.056658078 -0.33842152 0.39660388 0
0.060370971 -0.33167809 0.39998293 0
0.08565037 -0.33594579 0.39699945 0
0.093726441 -0.33612508 0.39449739 0
0.11707716 -0.33396167 0.39838803 0
0.12450878 -0.33624142 0.39766714 0
0.13734297 -0.33244151 0.39614886 0
0.14736883 -0.33176917 0.39934251 0
0.1528651 -0.33276767 0.39952216 0
0.16610257 -0.3336274 0.39585483 0
0.17869954 -0.33777303 0.39748359 0
0.19495361 -0.33478945 0.39672762 0
0.21117084 -0.33384436 0.3972255 0
0.22848468 -0.33687133 0.39665768 0
0.2391675 -0.33431929 0.3971706 0
0.25287849 -0.33121461 0.39733446 0
0.26447111 -0.33559054 0.3988294 0
0.28586394 -0.33795851 0.39773259 0
0.29436332 -0.3390891 0.39685929 0
0.31508499 -0.33369321 0.39894593 0
0.33196181 -0.33016509 0.39224049 0
0.34251648 -0.3346464 0.39567339 0
0.36724252 -0.33390492 0.39711496 0
0.37531203 -0.33084077 0.39747807 0
0.39416116 -0.33056349 0.39479288 0
0.40200835 -0.33482188 0.39940903 0
0.41372615 -0.33622712 0.39892957 0
0.42657083 -0.33317679 0.39495143 0
0.43834144 -0.33422917 0.39393225 0
0.44700199 -0.33839101 0.39785859 0
0.45159215 -0.33539408 0.39363754 0
0.47401649 -0.33604211 0.39711383 0
1.169454 -0.33622664 0.39706254 0
1.1861907 -0.33034867 0.39878699 0
1.2147886 -0.33055061 0.39824769 0
1.2274421 -0.33761185 0.3993344 0
1.2358614 -0.33484143 0.3961412 0
1.266133 -0.33548731 0.39387241 0
1.2733799 -0.3301875 0.39775491 0
1.2860676 -0.33764571 0.39946759 0
1.293624 -0.3334927 0.39848402 0
1.304618 -0.33899516 0.39610732 0
1.3167938 -0.33558601 0.39864776 0
1.3235372 -0.33187455 0.39717075 0
1.3342196 -0.3375718 0.39657566 0
1.3568531 -0.33300132 0.39568707 0
1.3848394 -0.33692521 0.39416313 0
1.3961116 -0.33327311 0.39522853 0
1.4153608 -0.33702391 0.39615676 0
1.4223119 -0.33404654 0.39713708 0
0.079187557 -0.32430404 0.39833236 0
0.083374307 -0.32479686 0.39692822 0
0.10720412 -0.32121676 0.39901087 0
0.11756842 -0.32317322 0.39805245 0
0.12467234 -0.32746094 0.39971718 0
0.14615779 -0.3203339 0.39849183 0
0.15199821 -0.32206362 0.39946353 0
0.17167763 -0.32719105 0.39936396 0
0.18087606 -0.3279025 0.39832672 0
0.19549005 -0.32774657 0.39412031 0
0.20138781 -0.32187146 0.39781386 0
0.223478 -0.327326 0.39933968 0
0.23350362 -0.32800502 0.39728296 0
0.25423914 -0.32202595 0.39729831 0
0.27913827 -0.32618779 0.39702925 0
0.28416258 -0.32760662 0.39780226 0
0.29187518 -0.32491845 0.3991406 0
0.30746657 -0.32572788 0.39756641 0
0.31142455 -0.32033032 0.39565551 0
0.32241911 -0.32411069 0.39939749 0
0.33390349 -0.32579201 0.39854443 0
0.34715396 -0.32254666 0.39290926 0
0.35994536 -0.32862252 0.39796472 0
0.36237305 -0.32763499 0.39607188 0
0.38627213 -0.32506579 0.39547476 0
0.39414269 -0.32438821 0.39968827 0
0.4163987 -0.32573193 0.39847001 0
0.42398649 -0.32663268 0.3991431 0
0.43793732 -0.3283028 0.39854658 0
0.44487447 -0.3265931 0.39625499 0
0.45097953 -0.32531136 0.3939552 0
0.46937436 -0.32344407 0.39820865 0
0.47332197 -0.32307738 0.39804658 0
1.1757711 -0.32334203 0.39861605 0
1.1973721 -0.3255536 0.39818773 0
1.2060202 -0.32122606 0.39590332 0
1.2145129 -0.32008094 0.39800501 0
1.2287985 -0.3234145 0.39496621 0
1.2575175 -0.32562369 0.39779529 0
1.2629832 -0.32545727 0.39973232 0
1.294938 -0.3222782 0.39809674 0
1.3047625 -0.3277604 0.39499092 0
1.3229922 -0.32289714 0.39894482 0
1.3333179 -0.32850569 0.39789867 0
1.3549 -0.32613534 0.39670971 0
1.3656026 -0.32294482 0.39362884 0
1.3838571 -0.32245225 0.39526755 0
1.3901948 -0.32532519 0.3962079 0
1.4146849 -0.32924479 0.39983797 0
1.4225167 -0.32390517 0.39757517 0
1.4480749 -0.32456177 0.39885616 0
1.4547929 -0.32178301 0.3985399 0
0.06055193 -0.31816262 0.39721796 0
0.078965113 -0.31218642 0.39597112 0
0.08445625 -0.31540722 0.39832267 0
0.11417775 -0.31295174 0.39907965 0
0.1207761 -0.31107539 0.3935653 0
0.13454346 -0.31331533 0.39276147 0
0.14562015 -0.31018943 0.39914894 0
0.17755274 -0.31474036 0.39555946 0
0.19529395 -0.31844729 0.39559719 0
0.20306031 -0.31401747 0.39656475 0
0.22603111 -0.31522602 0.3966397 0
0.24981253 -0.31089896 0.39781567 0
0.25598127 -0.31457585 0.39675802 0
0.27988452 -0.3147375 0.39585158 0
0.30549377 -0.31094331 0.39924857 0
0.31241494 -0.31390709 0.396694 0
0.33552593 -0.31456584 0.39752111 0
0.34196573 -0.31643432 0.39871526 0
0.36634403 -0.31880087 0.39775804 0
0.37414736 -0.31903857 0.39601302 0
0.38417178 -0.31045359 0.39628944 0
0.39286941 -0.31189841 0.39751747 0
0.41371661 -0.31626338 0.39579839 0
0.42535776 -0.31298369 0.3957195 0
0.44406027 -0.31560296 0.39565712 0
1.186066 -0.31942743 0.39803872 0
1.199649 -0.31570214 0.3991133 0
1.2051638 -0.31190652 0.3967447 0
1.2340854 -0.31539267 0.39667779 0
1.2411054 -0.31726569 0.39237869 0
1.2583691 -0.31304282 0.39496922 0
1.2654752 -0.31206912 0.39775717 0
1.2955848 -0.31144136 0.39795762 0
1.3177773 -0.31726593 0.39549667 0
1.3237461 -0.31362408 0.39635345 0
1.3332216 -0.31773823 0.39740989 0
1.3545419 -0.31447929 0.39767149 0
1.3665696 -0.31008691 0.39092457 0
1.389829 -0.31689495 0.39760718 0
1.4174289 -0.31582183 0.39774126 0
1.4222127 -0.3135497 0.39764997 0
1.4491144 -0.3118946 0.39641511 0
0.055749107 -0.30499619 0.39445019 0
0.082750246 -0.30309504 0.39675853 0
0.10643618 -0.3095805 0.39723611 0
0.11581759 -0.30147904 0.397953 0
0.12250499 -0.30509347 0.39880276 0
0.13492624 -0.30482358 0.39539695 0
0.14166062 -0.30707711 0.39668903 0
0.16742246 -0.30419391 0.39850608 0
0.17606585 -0.30536431 0.39702821 0
0.19876735 -0.30870837 0.39531374 0
0.20932238 -0.30313104 0.39860189 0
0.21948318 -0.30054277 0.39344323 0
0.2839821 -0.30312437 0.39374787 0
0.30540305 -0.30723161 0.39470017 0
0.31256634 -0.30128878 0.39819524 0
0.33495075 -0.30337638 0.39710456 0
0.34366089 -0.30413908 0.39639345 0
0.35878557 -0.3085081 0.39899382 0
0.36466318 -0.30689114 0.39610955 0
0.37364143 -0.3091895 0.39677858 0
0.38532621 -0.30561942 0.39724118 0
0.39972299 -0.30292243 0.3989588 0
0.41272312 -0.30515593 0.39937207 0
0.43681353 -0.3083865 0.39966428 0
0.44362181 -0.30622023 0.39690536 0
0.46682876 -0.30711335 0.39591014 0
1.1970013 -0.30403203 0.39724812 0
1.2050325 -0.30089253 0.39619571 0
1.2332999 -0.30149239 0.3964476 0
1.2571419 -0.30418843 0.39697909 0
1.2632295 -0.30331248 0.39818141 0
1.2726444 -0.30968827 0.39789578 0
1.2932955 -0.30607003 0.39660919 0
1.303465 -0.30844349 0.39649114 0
1.3238684 -0.30348843 0.39460498 0
1.3326093 -0.30794877 0.39807427 0
1.3565129 -0.30814761 0.39730167 0
1.3838953 -0.30751175 0.39640984 0
1.3938371 -0.30460185 0.39797682 0
1.416901 -0.30502433 0.3969748 0
1.4538578 -0.30149096 0.399297 0
1.4631714 -0.30788964 0.39860067 0
1.4805158 -0.30066317 0.39789212 0
1.492993 -0.30435055 0.39580369 0
0.05534761 -0.29489726 0.39538512 0
0.079617187 -0.29224461 0.39710712 0
0.082149073 -0.29265875 0.39731109 0
0.090625331 -0.29358214 0.39526498 0
0.11190967 -0.29021138 0.39805079 0
0.12155323 -0.29404253 0.39863333 0
0.13891761 -0.29737681 0.39831519 0
0.14279 -0.29779738 0.39792985 0
0.1671993 -0.29062623 0.39474118 0
0.19147174 -0.29607266 0.3953588 0
0.20548742 -0.29553336 0.39702797 0
0.22501998 -0.29504436 0.39805394 0
0.24860875 -0.29913253 0.39668903 0
0.25765783 -0.29986876 0.39553019 0
0.2650519 -0.29494399 0.39992437 0
0.27963966 -0.29680461 0.39959395 0
0.28490275 -0.29463071 0.3958782 0
0.3097232 -0.29836673 0.39568314 0
0.33149773 -0.2948758 0.39996624 0
0.34699494 -0.29675931 0.39945838 0
0.35670453 -0.29385728 0.39471349 0
0.36212128 -0.29415196 0.39383337 0
0.37247187 -0.29721707 0.39534354 0
0.38574713 -0.29831403 0.39553878 0
0.39924783 -0.29311675 0.39987716 0
0.41681379 -0.29596394 0.39636546 0
0.42390364 -0.29168338 0.39563963 0
0.43606049 -0.29763073 0.39949068 0
0.4656809 -0.29837459 0.39797494 0
1.2036136 -0.29341859 0.39950535 0
1.2322775 -0.2934944 0.39943191 0
1.2400151 -0.29739875 0.39338669 0
1.257274 -0.29256743 0.3957319 0
1.2883826 -0.29970235 0.39191461 0
1.2930413 -0.29097766 0.39752576 0
1.3037537 -0.29663056 0.39501464 0
1.3319546 -0.29818076 0.39883015 0
1.355631 -0.29727596 0.39615384 0
1.364524 -0.29189223 0.39399672 0
1.3887099 -0.29654187 0.39888248 0
1.4126109 -0.29821652 0.39928412 0
1.4212047 -0.29328507 0.39849362 0
1.4483534 -0.29115623 0.39683378 0
1.4844459 -0.29891461 0.39813364 0
1.4921006 -0.29477829 0.39692581 0
1.5152062 -0.29598206 0.39790007 0
1.5212134 -0.29253119 0.397843 0
0.055712629 -0.28379411 0.39545998 0
0.073663041 -0.28001755 0.39764392 0
0.082100078 -0.2831499 0.39892292 0
0.090971157 -0.28481358 0.39764687 0
0.10410123 -0.28715914 0.3970474 0
0.11135761 -0.28347152 0.39037606 0
0.12117331 -0.28400725 0.39963055 0
0.13867371 -0.28768128 0.3996346 0
0.14584748 -0.28732413 0.3974905 0
0.16509442 -0.28634471 0.39658064 0
0.20255069 -0.28089398 0.39963675 0
0.2190818 -0.2824356 0.39741516 0
0.22558264 -0.28623766 0.39690921 0
0.23474722 -0.28430313 0.39517805 0
0.25419968 -0.28531426 0.39776373 0
0.26352423 -0.28232116 0.39803371 0
0.27713424 -0.28390425 0.39748305 0
0.28559226 -0.28351277 0.3953867 0
0.30649859 -0.28786629 0.39641482 0
0.31302518 -0.28865594 0.39631176 0
0.32971734 -0.28122061 0.39692974 0
0.33551663 -0.28283614 0.39767048 0
0.36420244 -0.28702515 0.39793912 0
0.37235457 -0.280029 0.39994633 0
0.3865909 -0.28511733 0.39643678 0
0.39135176 -0.28430694 0.39631563 0
0.40820569 -0.28846306 0.39276111 0
0.41057509 -0.28102893 0.39643586 0
0.4234547 -0.28194445 0.39670324 0
0.43450564 -0.2838003 0.39614952 0
0.44537145 -0.28601617 0.39777222 0
0.46173316 -0.28431815 0.39486 0
1.1997317 -0.28110999 0.39559516 0
1.2039841 -0.28440899 0.39722639 0
1.2256969 -0.28586215 0.39936304 0
1.2335852 -0.28044814 0.39743528 0
1.2573448 -0.28210682 0.39514849 0
1.2871264 -0.28162879 0.39570463 0
1.2939206 -0.28084725 0.39880979 0
1.3242227 -0.28856462 0.39645824 0
1.3581811 -0.28499717 0.39590448 0
1.3617135 -0.28629392 0.39934918 0
1.3855182 -0.28746337 0.39919561 0
1.3942584 -0.28185099 0.39681911 0
1.4155082 -0.28371042 0.39596784 0
1.4206871 -0.28203934 0.39765063 0
1.4462646 -0.28330988 0.39937672 0
1.4533371 -0.285999 0.39705309 0
1.4911987 -0.28516477 0.39806244 0
1.516446 -0.28301257 0.39549935 0
1.5228733 -0.28207749 0.3991642 0
1.533208 -0.28786796 0.39814168 0
1.5502237 -0.28079861 0.39872882 0
0.057324816 -0.27488774 0.39795265 0
0.076558754 -0.27971071 0.39643586 0
0.083581254 -0.27212447 0.39783999 0
0.10301571 -0.27572459 0.39664781 0
0.1477323 -0.27693385 0.39768991 0
0.16661708 -0.27102846 0.39728388 0
0.17251997 -0.27029151 0.39458844 0
0.19663303 -0.27683228 0.39610505 0
0.20692794 -0.27976674 0.39687797 0
0.22549824 -0.27055424 0.39411944 0
0.24735956 -0.27828044 0.3976073 0
0.25477678 -0.27274245 0.3954857 0
0.27718276 -0.27268571 0.3970463 0
0.28157908 -0.27283806 0.39596018 0
0.30913585 -0.27948397 0.39859343 0
0.31091958 -0.273884 0.3921549 0
0.32947892 -0.27186364 0.39854395 0
0.34455079 -0.27244157 0.39660391 0
0.35535008 -0.27625626 0.39314821 0
0.3633396 -0.27763003 0.3992565 0
0.38928622 -0.27039498 0.3993969 0
0.39038295 -0.27045411 0.39904365 0
0.40782207 -0.27062386 0.39675638 0
0.41627473 -0.2721917 0.3976506 0
0.43541366 -0.27590078 0.39949539 0
0.4412778 -0.27326316 0.39598867 0
0.46383125 -0.27483243 0.39571595 0
1.1981591 -0.27379864 0.39908621 0
1.2051123 -0.27783746 0.39366218 0
1.2267803 -0.27172917 0.39565 0
1.2407748 -0.27774829 0.39684916 0
1.2564884 -0.27208489 0.39611611 0
1.2634975 -0.27997106 0.39569616 0
1.2716223 -0.27814215 0.39785644 0
1.3010803 -0.2799384 0.3997446 0
1.3251501 -0.27381009 0.39131537 0
1.3564745 -0.27594727 0.39687917 0
1.3640677 -0.270271 0.39365754 0
1.3862203 -0.27525085 0.39766571 0
1.3973414 -0.27066892 0.39811003 0
1.4153029 -0.27197808 0.39446715 0
1.4207357 -0.27166671 0.39805838 0
1.4541296 -0.27820367 0.39659604 0
1.4835898 -0.27691382 0.39694726 0
1.4921228 -0.27245587 0.39597881 0
1.5164582 -0.2718398 0.39509749 0
1.5212542 -0.27539796 0.39617702 0
1.532998 -0.27709836 0.39815161 0
1.5493313 -0.27097386 0.39977857 0
1.5542232 -0.27954692 0.39993319 0
1.5886887 -0.27337188 0.39862284 0
0.073755428 -0.26696461 0.39505032 0
0.081661746 -0.26601046 0.39788187 0
0.10233526 -0.26503962 0.39714059 0
0.11498158 -0.26630467 0.39723316 0
0.13403504 -0.26387066 0.3983745 0
0.16461532 -0.26023763 0.3990854 0
0.17280774 -0.2616989 0.39722896 0
0.19100754 -0.26563281 0.3976391 0
0.20328157 -0.26784962 0.39670843 0
0.21818845 -0.26508731 0.39633194 0
0.2267503 -0.26167554 0.39641806 0
0.24922149 -0.261913 0.39102575 0
0.27531487 -0.26136416 0.39683428 0
0.28436786 -0.26448697 0.39532459 0
0.30643445 -0.26731461 0.3973653 0
0.32902509 -0.26730102 0.39287436 0
0.33830732 -0.26285905 0.39902028 0
0.35623258 -0.26590365 0.39941907 0
0.36133403 -0.26624888 0.39870328 0
0.38294369 -0.26867288 0.39799702 0
0.39089936 -0.26018447 0.39934576 0
0.4094606 -0.26463002 0.39632466 0
0.41421515 -0.26039618 0.39675781 0
0.43955106 -0.26076716 0.39419922 0
0.44485432 -0.26338166 0.39652124 0
0.46625751 -0.26682824 0.39818797 0
1.2028908 -0.26063746 0.39850783 0
1.2294177 -0.2629239 0.39992008 0
1.2316889 -0.26868361 0.39472818 0
1.2559906 -0.26122206 0.3962985 0
1.2622515 -0.26449651 0.39624518 0
1.2716018 -0.26669258 0.3970252 0
1.2940663 -0.2640397 0.39810207 0
1.3156179 -0.26572388 0.39677498 0
1.3216854 -0.2693283 0.39785984 0
1.350963 -0.26848668 0.39812505 0
1.3617462 -0.26360172 0.3979592 0
1.3838061 -0.26622647 0.39845887 0
1.393459 -0.26076883 0.39722833 0
1.4164549 -0.26200503 0.39702889 0
1.4267715 -0.26712579 0.39486456 0
1.4467572 -0.26030415 0.39828894 0
1.452264 -0.2694518 0.39852577 0
1.4616898 -0.26590413 0.39933202 0
1.4843947 -0.26669949 0.39861059 0
1.5171851 -0.26203674 0.39742288 0
1.5324301 -0.2655527 0.39618862 0
1.5596408 -0.26029795 0.39119884 0
1.5713502 -0.265948 0.39098093 0
1.5851773 -0.26450127 0.39812124 0
0.074970648 -0.25748008 0.39651492 0
0.088098332 -0.25098962 0.39733803 0
0.10022537 -0.25069684 0.39344618 0
0.13677196 -0.25328559 0.39830533 0
0.14348869 -0.25603646 0.39554307 0
0.17442791 -0.25505751 0.39621606 0
0.19482879 -0.25434846 0.3957845 0
0.20333545 -0.25881165 0.39886311 0
0.22235815 -0.25094432 0.39745674 0
0.24862866 -0.25522727 0.39636275 0
0.27397877 -0.25137061 0.39809334 0
0.28271502 -0.25348514 0.39865014 0
0.30163449 -0.25510663 0.39734426 0
0.3167699 -0.25662869 0.39644966 0
0.32797331 -0.25880736 0.39638078 0
0.3324638 -0.25661057 0.39311993 0
0.34366196 -0.25243872 0.39867055 0
0.35529131 -0.25531834 0.39997685 0
0.36312062 -0.25255841 0.39604768 0
0.38074976 -0.25746745 0.39729401 0
0.40654904 -0.25782841 0.39481175 0
0.41560477 -0.25110406 0.39847112 0
0.42178875 -0.25947946 0.39594528 0
0.43995649 -0.2546317 0.39922509 0
0.44133466 -0.25479931 0.39959145 0
0.46593338 -0.25625199 0.39915788 0
1.197399 -0.25235957 0.39906749 0
1.2326702 -0.25568312 0.39745253 0
1.2404178 -0.25540036 0.39584804 0
1.2651223 -0.25657099 0.3949644 0
1.2722229 -0.25359219 0.39457154 0
1.2942632 -0.25721377 0.39647439 0
1.3207916 -0.25913042 0.39826569 0
1.3578609 -0.25283402 0.3959806 0
1.3624026 -0.25079459 0.39588568 0
1.3880075 -0.25261515 0.39804894 0
1.4167229 -0.25434273 0.39654025 0
1.429891 -0.25616425 0.39595973 0
1.4457592 -0.25071782 0.39964104 0
1.4532634 -0.25569409 0.39531553 0
1.4624518 -0.25322646 0.39743182 0
1.483596 -0.25440377 0.39609185 0
1.4929584 -0.25027722 0.39590192 0
1.5248953 -0.2597329 0.39949223 0
1.5497693 -0.25908107 0.39875126 0
1.5632561 -0.25963682 0.3923831 0
1.5864652 -0.25270957 0.39860103 0
1.5920757 -0.25711125 0.39302194 0
1.601365 -0.25416964 0.39488876 0
1.6142555 -0.25696295 0.39136708 0
1.6384789 -0.25071687 0.39815566 0
1.6489645 -0.25479525 0.39303526 0
0.075567409 -0.24871773 0.39908192 0
0.087934539 -0.24104828 0.39878356 0
0.10319297 -0.24193591 0.39566359 0
0.11099879 -0.24506587 0.39703059 0
0.13107936 -0.24104041 0.39829907 0
0.14392488 -0.24100131 0.39525232 0
0.16257481 -0.24657744 0.39656946 0
0.17228143 -0.24191445 0.39997923 0
0.2241513 -0.24031252 0.39808071 0
0.24593215 -0.24534339 0.3981584 0
0.2845251 -0.24398869 0.3957113 0
0.29953808 -0.24220914 0.39580524 0
0.3054648 -0.24270219 0.39435866 0
0.31296784 -0.24522513 0.39649001 0
0.33277971 -0.24875277 0.39645883 0
0.35939711 -0.24280185 0.39762688 0
0.36241657 -0.24164981 0.39625406 0
0.38425809 -0.24685019 0.3975516 0
0.39499003 -0.24520129 0.39536354 0
0.40553433 -0.24585456 0.3938427 0
0.41249329 -0.24546117 0.39269409 0
0.4319815 -0.24573821 0.39628524 0
0.44387871 -0.2434985 0.3987101 0
0.46474439 -0.2437126 0.39727336 0
1.2397355 -0.24538487 0.39668581 0
1.2616566 -0.24905413 0.39699134 0
1.2711958 -0.24437398 0.39625809 0
1.2840415 -0.24071711 0.39731857 0
1.291221 -0.24864739 0.39786753 0
1.3022312 -0.24857634 0.39497426 0
1.3221675 -0.24672049 0.39715549 0
1.3304809 -0.24437135 0.39848527 0
1.3541011 -0.24525183 0.39851847 0
1.3975855 -0.24738663 0.39640245 0
1.41199 -0.24306649 0.39783621 0
1.4281996 -0.24786109 0.39865541 0
1.4472986 -0.24772424 0.39612019 0
1.4521259 -0.24702758 0.39781851 0
1.4614168 -0.24362296 0.39881992 0
1.4837824 -0.24308318 0.39588261 0
1.4952255 -0.24526876 0.3984952 0
1.5144049 -0.24115247 0.3972851 0
1.5329024 -0.24458808 0.39960322 0
1.5499836 -0.24743146 0.39806998 0
1.5656544 -0.24829763 0.39375928 0
1.5862595 -0.2402665 0.39588186 0
1.593403 -0.2482211 0.39688265 0
1.6007847 -0.24364299 0.39544973 0
1.6316847 -0.24332207 0.39842948 0
1.6677512 -0.2482776 0.39821586 0
1.7196511 -0.24420947 0.39602101 0
0.051270772 -0.23965997 0.39627275 0
0.069503352 -0.23403186 0.3967526 0
0.075811669 -0.2353074 0.39609885 0
0.08132045 -0.2391395 0.3987163 0
0.099065229 -0.2388255 0.39290699 0
0.13224714 -0.23328131 0.3977434 0
0.14396434 -0.23154467 0.39721152 0
0.15977113 -0.237755 0.39878142 0
0.1627665 -0.23456591 0.39437306 0
0.18745188 -0.2344901 0.3944625 0
0.19623308 -0.23265332 0.39607063 0
0.20424633 -0.23680276 0.39853463 0
0.21552448 -0.23753709 0.39697039 0
0.22527735 -0.23509926 0.39789799 0
0.23166387 -0.23590821 0.3968032 0
0.24611692 -0.23443145 0.39877173 0
0.25444263 -0.23301524 0.39379475 0
0.27910465 -0.23034543 0.39805958 0
0.30339521 -0.23406547 0.39790183 0
0.31541854 -0.23502558 0.39717528 0
0.32705539 -0.23678988 0.39617819 0
0.33580595 -0.23761338 0.39586672 0
0.34249252 -0.23134488 0.39993653 0
0.37875527 -0.23372048 0.39571664 0
0.38785809 -0.23650616 0.39817214 0
0.40589756 -0.23872107 0.39793062 0
0.41537601 -0.23774832 0.39620903 0
0.42059058 -0.23011202 0.39994669 0
0.43807679 -0.23856944 0.39406237 0
0.44044334 -0.23113602 0.3978692 0
0.46418709 -0.23286837 0.3978636 0
1.2343093 -0.23705858 0.39723396 0
1.2540799 -0.2307083 0.39843512 0
1.2627126 -0.23845929 0.39869416 0
1.2936515 -0.23537701 0.39639622 0
1.3002044 -0.23567694 0.39854345 0
1.3177408 -0.23749655 0.3969031 0
1.3314673 -0.23052615 0.395511 0
1.3558036 -0.23419255 0.39662966 0
1.38144 -0.23308796 0.39718023 0
1.3966867 -0.23760337 0.39760444 0
1.4168946 -0.23657578 0.39779776 0
1.4247383 -0.23654479 0.3970392 0
1.4465066 -0.2376582 0.39705762 0
1.4553879 -0.23202485 0.39468652 0
1.4835778 -0.2326948 0.39685652 0
1.494804 -0.23450583 0.39875975 0
1.5158492 -0.23570651 0.39857727 0
1.5233032 -0.23619479 0.39686877 0
1.5316128 -0.23397082 0.39884996 0
1.5880817 -0.23007649 0.39999685 0
1.5983077 -0.23580569 0.39880165 0
1.6129929 -0.23598593 0.3926369 0
1.6399869 -0.23715991 0.39564833 0
1.6468633 -0.23490494 0.39550969 0
1.6712724 -0.23324412 0.39793944 0
1.7110032 -0.23654431 0.39579591 0
0.048846293 -0.22538084 0.39342189 0
0.069022223 -0.22336525 0.39760694 0
0.077186748 -0.22599572 0.39787859 0
0.098632857 -0.22833365 0.39388081 0
0.10767262 -0.22431439 0.39543375 0
0.11615662 -0.22674578 0.39855301 0
0.18663578 -0.22999781 0.3960253 0
0.19698112 -0.22169656 0.39632639 0
0.22282545 -0.22735804 0.39577907 0
0.24529605 -0.22211045 0.39713666 0
0.25356168 -0.22651333 0.39973497 0
0.2773487 -0.22323674 0.3973611 0
0.28655607 -0.22175521 0.39939499 0
0.29914278 -0.22305983 0.39926526 0
0.3035627 -0.2235629 0.39828902 0
0.33154613 -0.22732276 0.39766935 0
0.35593992 -0.22525376 0.39523414 0
0.36326808 -0.22342271 0.39610222 0
0.38547379 -0.22468919 0.39786637 0
0.39403313 -0.22483176 0.39741251 0
0.40547174 -0.22873086 0.39915034 0
0.41250342 -0.22506636 0.3947117 0
0.42986661 -0.22516888 0.39236593 0
0.43706197 -0.22214526 0.39443532 0
0.44514328 -0.22238463 0.39954147 0
0.45816618 -0.22941321 0.39475092 0
0.46357316 -0.22218484 0.39839372 0
1.2271522 -0.22845763 0.39680842 0
1.2378846 -0.22120732 0.3924638 0
1.2598218 -0.22935504 0.39917088 0
1.2676822 -0.22413582 0.39735082 0
1.2836112 -0.22996587 0.39752385 0
1.2993978 -0.2257511 0.39962399 0
1.3164464 -0.2284717 0.39906964 0
1.3482848 -0.22662133 0.39944875 0
1.3537079 -0.22215909 0.39698729 0
1.3966266 -0.2260918 0.39710674 0
1.4176861 -0.22868747 0.3976478 0
1.4248158 -0.22373265 0.39506453 0
1.4472536 -0.2249133 0.39557394 0
1.4509307 -0.22611135 0.39897227 0
1.4867188 -0.22982186 0.39508271 0
1.5187081 -0.22836798 0.39857322 0
1.5316004 -0.22114915 0.39591512 0
1.5492929 -0.22559327 0.39844573 0
1.5670792 -0.22688025 0.39632058 0
1.5930785 -0.22509116 0.3957234 0
1.6005849 -0.22097248 0.39515075 0
1.6144582 -0.22228545 0.39008868 0
1.6322986 -0.22526377 0.39715293 0
1.6487874 -0.22062463 0.39240965 0
1.6679028 -0.22516221 0.39753044 0
1.6766969 -0.22169536 0.39948127 0
1.681497 -0.22806996 0.39502618 0
1.7065767 -0.22750634 0.39624736 0
1.7103649 -0.22585887 0.39643106 0
0.050148178 -0.2180025 0.39769015 0
0.072980687 -0.21286649 0.39741275 0
0.08602111 -0.21797198 0.39867756 0
0.099086806 -0.21957511 0.396687 0
0.11585526 -0.21645111 0.39978549 0
0.12820213 -0.21597546 0.39611611 0
0.13374393 -0.21840972 0.39757764 0
0.1566935 -0.21210212 0.3960155 0
0.16733412 -0.21177453 0.39256203 0
0.17206065 -0.21685666 0.39778575 0
0.1929137 -0.21250647 0.39943096 0
0.21498851 -0.21577162 0.39778996 0
0.22412769 -0.21760601 0.39725712 0
0.24822108 -0.21375769 0.39944255 0
0.25369376 -0.2141909 0.39812088 0
0.2759003 -0.21837491 0.39807278 0
0.29976624 -0.21195143 0.39901257 0
0.3064962 -0.21442956 0.39630458 0
0.31323737 -0.2197935 0.39320096 0
0.32742637 -0.21223587 0.39375496 0
0.33477694 -0.21678323 0.39765355 0
0.3400225 -0.21491259 0.39478633 0
0.35362405 -0.21792477 0.39555266 0
0.37714821 -0.21531266 0.39422584 0
0.3865096 -0.21445221 0.39866897 0
0.40550631 -0.21208304 0.39388058 0
0.43470114 -0.21607655 0.39469272 0
1.2356414 -0.21227139 0.39517322 0
1.2543625 -0.21270674 0.3966563 0
1.2977339 -0.21227139 0.39681539 0
1.3166207 -0.21640152 0.39786902 0
1.3209544 -0.21420878 0.39766714 0
1.3320502 -0.21743506 0.39343747 0
1.3499504 -0.21142834 0.39535403 0
1.3539706 -0.21439189 0.3947345 0
1.378641 -0.21360272 0.39951074 0
1.3848439 -0.21368951 0.39856586 0
1.4140834 -0.21504349 0.39700803 0
1.4239467 -0.21456069 0.39706561 0
1.4463137 -0.21500796 0.397019 0
1.479561 -0.21164912 0.39606556 0
1.4845678 -0.21486849 0.39631125 0
1.4932135 -0.21533841 0.39419875 0
1.5155467 -0.21625632 0.39463007 0
1.524515 -0.21442002 0.39843333 0
1.5311614 -0.21022385 0.39622664 0
1.5880958 -0.21651572 0.39609128 0
1.5995401 -0.21090955 0.39639017 0
1.6371588 -0.21814936 0.39920318 0
1.6439198 -0.21600193 0.39920625 0
1.6679791 -0.21574062 0.39534503 0
1.6732131 -0.21319336 0.39480385 0
1.7050208 -0.2182495 0.39853474 0
1.7146393 -0.21266001 0.39666864 0
0.075668499 -0.20357722 0.39902672 0
0.083699986 -0.20369166 0.39604521 0
0.097528383 -0.2081005 0.39773235 0
0.12794475 -0.20572013 0.39745855 0
0.1336246 -0.2057988 0.39615494 0
0.15694754 -0.20298547 0.39848968 0
0.1623724 -0.20516604 0.39951062 0
0.1854661 -0.20392102 0.39219961 0
0.19419341 -0.20437831 0.39650616 0
0.20172231 -0.20263833 0.39875352 0
0.21666472 -0.20513171 0.39790851 0
0.22675304 -0.20632905 0.39642969 0
0.24156134 -0.20416325 0.39479879 0
0.27518445 -0.20596379 0.39716679 0
0.28402442 -0.20569628 0.39477608 0
0.30312663 -0.20018595 0.39695597 0
0.33074635 -0.20707911 0.3999947 0
0.3532638 -0.20785397 0.39688632 0
0.38659388 -0.20213121 0.39735806 0
0.4043588 -0.20364588 0.39680186 0
0.41222054 -0.2047841 0.39706558 0
0.42987567 -0.20848435 0.3983562 0
0.43822712 -0.20526332 0.39456785 0
0.44372636 -0.20004028 0.39991248 0
1.2331837 -0.20390147 0.39699504 0
1.2706753 -0.20994157 0.39482769 0
1.2868458 -0.2056157 0.39735103 0
1.2996234 -0.20130032 0.39739046 0
1.3199364 -0.20454043 0.39915678 0
1.3245045 -0.20265335 0.3928856 0
1.3311306 -0.20758647 0.3947477 0
1.3896226 -0.20398968 0.39370811 0
1.3960277 -0.20374364 0.39706469 0
1.4097337 -0.20069331 0.39991304 0
1.4172364 -0.20638698 0.39788887 0
1.4264594 -0.20459861 0.39973161 0
1.4472145 -0.20148033 0.39433584 0
1.4530796 -0.20270556 0.3996931 0
1.48303 -0.20426816 0.39901525 0
1.4914209 -0.20571679 0.39562279 0
1.5191668 -0.20435876 0.39700487 0
1.5690171 -0.2005102 0.3924652 0
1.5956258 -0.2034654 0.3991572 0
1.6370567 -0.20665091 0.39905223 0
1.6699718 -0.2002067 0.3989979 0
1.6805488 -0.20484799 0.39405164 0
1.7061406 -0.20568675 0.39770335 0
0.067518637 -0.19911402 0.39666757 0
0.073062226 -0.19569892 0.39714217 0
0.097379252 -0.19796056 0.39927492 0
0.10507981 -0.19736832 0.39570284 0
0.11126511 -0.19746536 0.39247772 0
0.12670271 -0.19326299 0.39682508 0
0.13552599 -0.19501084 0.39649945 0
0.15929048 -0.19162434 0.39915046 0
0.16596083 -0.19238347 0.39713934 0
0.188327 -0.19660395 0.3958185 0
0.21262972 -0.1920287 0.39733005 0
0.22047298 -0.19391984 0.39756212 0
0.24408667 -0.19748133 0.39545062 0
0.26834577 -0.19058484 0.39424774 0
0.27341992 -0.19428748 0.3974067 0
0.28382522 -0.19590014 0.39652431 0
0.29853004 -0.19918507 0.39775226 0
0.30498391 -0.19516343 0.39822203 0
0.32563287 -0.19198388 0.39683947 0
0.35115677 -0.19835156 0.39943418 0
0.40910333 -0.1987471 0.39109337 0
0.41474801 -0.19355339 0.39745787 0
0.42860168 -0.19503659 0.39637265 0
0.43665439 -0.19514197 0.39590031 0
0.45583218 -0.1947524 0.39411688 0
1.2369248 -0.19250411 0.39915991 0
1.256394 -0.19595474 0.39773619 0
1.2643777 -0.19221109 0.39745757 0
1.27116 -0.19659489 0.39267349 0
1.2823533 -0.19803828 0.39924273 0
1.3170148 -0.19408387 0.39860293 0
1.3253669 -0.19933003 0.39670944 0
1.3579837 -0.19762868 0.39707959 0
1.3959666 -0.19194859 0.39655375 0
1.4181684 -0.19496411 0.39865476 0
1.4272341 -0.19122189 0.39765629 0
1.4533881 -0.19758767 0.39272666 0
1.4769522 -0.19266146 0.39963374 0
1.4913391 -0.1930396 0.39407095 0
1.5151271 -0.19617814 0.39831725 0
1.5246164 -0.19073695 0.39739344 0
1.5652984 -0.19468468 0.39802989 0
1.58438 -0.19674796 0.39743146 0
1.5932406 -0.19050711 0.39548001 0
1.6139497 -0.19969934 0.39020118 0
1.6495532 -0.19614047 0.39069304 0
1.6656114 -0.19174165 0.39804727 0
1.6766378 -0.19502038 0.39358088 0
1.7028497 -0.19557565 0.39761591 0
0.068900511 -0.18741673 0.39583036 0
0.10460047 -0.18333262 0.39321706 0
0.11253624 -0.18521351 0.39781457 0
0.1277893 -0.18229216 0.39714894 0
0.13494937 -0.18383998 0.3968786 0
0.15537874 -0.18986815 0.39708817 0
0.16704981 -0.18226737 0.39806533 0
0.18695478 -0.18838137 0.39995742 0
0.19171445 -0.18754405 0.39736995 0
0.21213584 -0.1812107 0.39822569 0
0.22572367 -0.18478268 0.39815331 0
0.24424784 -0.18813342 0.39685714 0
0.25315374 -0.18054169 0.39902419 0
0.26951772 -0.18433112 0.39957616 0
0.27751762 -0.18549865 0.399434 0
0.28329188 -0.18512362 0.39738083 0
0.29619163 -0.18725175 0.39800119 0
0.30374438 -0.18713373 0.3956449 0
0.311387 -0.1870684 0.39501905 0
0.32602698 -0.18254703 0.39914224 0
0.33882934 -0.18420428 0.3986336 0
0.35621566 -0.18475288 0.39625701 0
0.36548978 -0.18832749 0.39788422 0
0.37711507 -0.18830842 0.39635506 0
0.38418227 -0.18026179 0.39902577 0
0.40335375 -0.1839177 0.3963196 0
0.41140109 -0.18312997 0.39854431 0
0.42761415 -0.18262738 0.39554104 0
0.43450874 -0.18239516 0.39473057 0
0.44209152 -0.1849224 0.39637005 0
0.4558745 -0.18700284 0.39785171 0
1.2271713 -0.1846258 0.39876842 0
1.2362918 -0.18888587 0.39367998 0
1.2538 -0.18356293 0.3955895 0
1.2844094 -0.184807 0.39838308 0
1.293208 -0.18112582 0.39902747 0
1.3272048 -0.18776387 0.39693937 0
1.3475105 -0.18069094 0.39841947 0
1.3570946 -0.1875388 0.39829072 0
1.3861288 -0.18728608 0.39957413 0
1.41035 -0.18762797 0.39820144 0
1.4470638 -0.18175715 0.39861149 0
1.4545749 -0.18818635 0.39656755 0
1.4768652 -0.18093604 0.3993293 0
1.4825348 -0.18897122 0.39864749 0
1.4911498 -0.181472 0.39392087 0
1.5188645 -0.18174523 0.39781344 0
1.5296997 -0.18912047 0.3978183 0
1.5478741 -0.18101615 0.39922655 0
1.5538098 -0.18591994 0.39407361 0
1.5641571 -0.18469161 0.3994709 0
1.5849007 -0.1855523 0.39899188 0
1.5965449 -0.18440646 0.39730486 0
1.6350859 -0.18324727 0.39771983 0
1.6642584 -0.18170565 0.39860225 0
1.6778053 -0.18578213 0.39824295 0
1.7047242 -0.183016 0.39761481 0
1.7193559 -0.18636388 0.39527854 0
0.10492174 -0.17410392 0.39583179 0
0.12527852 -0.17056435 0.39753318 0
0.13452904 -0.17072409 0.39572024 0
0.15494661 -0.17415589 0.39269158 0
0.18555729 -0.17536134 0.39875543 0
0.19409125 -0.17446131 0.39511821 0
0.23830716 -0.17181891 0.3934786 0
0.24811713 -0.17987651 0.39916825 0
0.29676944 -0.17554158 0.39743924 0
0.30146605 -0.17668241 0.39713958 0
0.33175296 -0.17563599 0.39697936 0
0.34877509 -0.17266053 0.39708564 0
0.35483438 -0.17490739 0.39801499 0
0.37827009 -0.17860717 0.39870656 0
0.38272911 -0.1784398 0.3976568 0
0.40657228 -0.17669719 0.39623126 0
0.41061455 -0.17140597 0.39849803 0
0.43469733 -0.17501944 0.39891121 0
0.44147652 -0.17393893 0.39701018 0
1.2356161 -0.17469138 0.39742592 0
1.2547446 -0.1734969 0.39770502 0
1.2672156 -0.17678136 0.39489326 0
1.285957 -0.17197055 0.39779142 0
1.2985076 -0.17964333 0.39832315 0
1.3154961 -0.1705777 0.39739433 0
1.3246812 -0.17786616 0.3970333 0
1.3542634 -0.17704171 0.39791825 0
1.3794922 -0.17613715 0.39601836 0
1.3855084 -0.17498606 0.39799377 0
1.3940419 -0.17179555 0.39917013 0
1.4147948 -0.1725952 0.39711428 0
1.4204415 -0.17957515 0.39498198 0
1.4437517 -0.17230338 0.39966509 0
1.4841734 -0.17672509 0.39874509 0
1.5146672 -0.17319077 0.39823517 0
1.553722 -0.17673081 0.39760646 0
1.5636266 -0.17363852 0.39993295 0
1.5858639 -0.17216843 0.39721128 0
1.5967511 -0.17983121 0.3995899 0
1.6126307 -0.17802876 0.39153421 0
1.6322037 -0.17262477 0.39604375 0
1.6464647 -0.17697257 0.39458871 0
1.6740564 -0.17463511 0.39751795 0
1.6800693 -0.171323 0.3957195 0
1.6998159 -0.17508286 0.39977619 0
1.7044877 -0.17050904 0.39633891 0
1.7143162 -0.17775601 0.39644253 0
0.12527792 -0.16052884 0.39967704 0
0.13424818 -0.16257781 0.39937544 0
0.1684442 -0.16018313 0.39983901 0
0.18511896 -0.16218203 0.39718282 0
0.19223647 -0.16596764 0.39920327 0
0.20865767 -0.1640889 0.39323115 0
0.21618418 -0.16419476 0.39157817 0
0.22662847 -0.16195434 0.39832351 0
0.23981301 -0.16640228 0.39974976 0
0.24479894 -0.16495818 0.39719233 0
0.25391322 -0.16547412 0.39491403 0
0.27187294 -0.16652745 0.39297566 0
0.28239673 -0.16384357 0.39960787 0
0.30208689 -0.16364115 0.39567837 0
0.31126481 -0.16820306 0.39951763 0
0.35532194 -0.1617803 0.39662153 0
0.36380047 -0.16470116 0.39769182 0
0.38305837 -0.16685551 0.39738765 0
0.4052487 -0.16749543 0.39510861 0
0.41285759 -0.16027611 0.39917329 0
0.43547624 -0.16010636 0.39583564 0
1.2544459 -0.16178936 0.39748272 0
1.2685677 -0.16624373 0.39638647 0
1.2982846 -0.16786045 0.39798054 0
1.3184782 -0.16595334 0.39794892 0
1.3276631 -0.16700286 0.3994666 0
1.3482848 -0.16687936 0.39614186 0
1.3545474 -0.16430062 0.39673039 0
1.3790225 -0.16663283 0.39829159 0
1.3870248 -0.16093296 0.39568806 0
1.4144708 -0.16124457 0.39719689 0
1.4259464 -0.16969937 0.3989656 0
1.4491774 -0.16947049 0.39874983 0
1.4785029 -0.16604489 0.3960658 0
1.4803325 -0.16768044 0.39969513 0
1.5187799 -0.16994733 0.39755079 0
1.5284179 -0.16741413 0.39909729 0
1.5547768 -0.1656577 0.39904767 0
1.5898272 -0.16882104 0.39584827 0
1.6001812 -0.16264671 0.39422345 0
1.6332542 -0.16109318 0.39793879 0
1.6460906 -0.16556519 0.39482734 0
1.6692046 -0.16256112 0.39126822 0
1.7017623 -0.16233844 0.39982006 0
1.7111419 -0.16656107 0.39512834 0
0.093099877 -0.15946215 0.39656425 0
0.10703556 -0.15367287 0.39777851 0
0.13835983 -0.1511218 0.39903936 0
0.15215318 -0.15316886 0.39615116 0
0.16392891 -0.15535182 0.39507425 0
0.18216579 -0.15477651 0.39652762 0
0.19282107 -0.15407556 0.39907786 0
0.20964925 -0.15459317 0.39537022 0
0.21493702 -0.1569559 0.39608249 0
0.22594731 -0.15051526 0.39884961 0
0.24624114 -0.15590781 0.39940891 0
0.25454575 -0.15756768 0.39877662 0
0.26872092 -0.15773433 0.39647612 0
0.27324694 -0.15599316 0.39760691 0
0.29399842 -0.15553421 0.39558226 0
0.30132395 -0.15377778 0.39786762 0
0.32157654 -0.15466684 0.39459288 0
0.3308472 -0.1590144 0.39804614 0
0.34735793 -0.1589312 0.39524293 0
0.35300428 -0.15929478 0.39464507 0
0.37545067 -0.1503641 0.39423487 0
0.38355833 -0.15363759 0.39599365 0
0.4046883 -0.15425271 0.39367315 0
0.42586786 -0.15414637 0.39640024 0
0.43534571 -0.15120524 0.39867577 0
1.2514595 -0.1516363 0.39838466 0
1.2670807 -0.15760726 0.39918971 0
1.2878095 -0.15974063 0.39837632 0
1.2932941 -0.15730447 0.39781693 0
1.3177229 -0.1557309 0.39480135 0
1.3227707 -0.15645236 0.39943215 0
1.3563565 -0.15249699 0.39772218 0
1.3783861 -0.15570134 0.39889213 0
1.3950754 -0.1574294 0.39642438 0
1.4085971 -0.15480918 0.39981923 0
1.4133774 -0.15915936 0.39358866 0
1.4447454 -0.15819854 0.39699829 0
1.4537128 -0.15403765 0.39676562 0
1.4789423 -0.15315217 0.39485046 0
1.485315 -0.15249842 0.39845568 0
1.494135 -0.15898865 0.39703116 0
1.5190295 -0.15690178 0.39552072 0
1.5270566 -0.15409392 0.39644787 0
1.5319859 -0.15208405 0.39806974 0
1.5471674 -0.15822142 0.3995975 0
1.5632046 -0.15022391 0.39982498 0
1.5819787 -0.1528067 0.39973006 0
1.5950054 -0.15690058 0.3987962 0
1.6122764 -0.15455121 0.39139375 0
1.6312553 -0.15022248 0.39878318 0
1.6424969 -0.15893286 0.39976275 0
1.6661493 -0.15498227 0.3953371 0
1.6795725 -0.15875453 0.394438 0
1.7084295 -0.15794152 0.3980478 0
0.12254779 -0.14467019 0.39609274 0
0.15412669 -0.14245862 0.39689374 0
0.18743365 -0.14119929 0.39912674 0
0.19674294 -0.14221352 0.39769721 0
0.21324162 -0.14559978 0.39754406 0
0.22019796 -0.14766949 0.39744207 0
0.23924522 -0.14111918 0.39907205 0
0.24709861 -0.14316386 0.39841783 0
0.25371605 -0.1457116 0.39892206 0
0.26895911 -0.14898127 0.39957747 0
0.27571613 -0.14656609 0.39564526 0
0.29970866 -0.14363211 0.39930639 0
0.32116693 -0.14605683 0.39828071 0
0.33654279 -0.1494419 0.39930558 0
0.34685522 -0.14809674 0.39629409 0
0.35179859 -0.14682883 0.39349064 0
0.38314241 -0.14544266 0.39923012 0
0.4049105 -0.14474887 0.3960802 0
0.4147101 -0.14753073 0.39840004 0
0.42781013 -0.14993542 0.39864039 0
1.2582031 -0.14840478 0.39741126 0
1.2652336 -0.14436954 0.39703929 0
1.2835978 -0.14569825 0.39647201 0
1.2981786 -0.14312524 0.3964611 0
1.3164934 -0.14625138 0.39673692 0
1.3231245 -0.14323014 0.3979362 0
1.3462301 -0.14672655 0.39904058 0
1.3551553 -0.14143008 0.39829668 0
1.3834516 -0.14150065 0.39962435 0
1.4172403 -0.14823264 0.39800856 0
1.4263734 -0.14438957 0.39694437 0
1.4559027 -0.14211196 0.39809707 0
1.4775883 -0.14339322 0.39670631 0
1.4818617 -0.14325446 0.39977512 0
1.5123738 -0.14417905 0.3971661 0
1.5285767 -0.14286822 0.39795017 0
1.5475012 -0.14555663 0.39870429 0
1.554134 -0.14249343 0.39928639 0
1.5874449 -0.14773673 0.39779693 0
1.6114765 -0.14366168 0.39226589 0
1.6328934 -0.14755028 0.39449704 0
1.6427091 -0.1465103 0.399142 0
1.6653525 -0.14400166 0.39881518 0
1.6785837 -0.14871329 0.39636916 0
1.7073637 -0.1456787 0.39682791 0
0.10524623 -0.13495368 0.39001381 0
0.13440792 -0.13762325 0.39822847 0
0.15448599 -0.13328713 0.39976731 0
0.16294281 -0.1331479 0.39705333 0
0.18523411 -0.13767022 0.39643216 0
0.21442966 -0.1361782 0.39931676 0
0.22462039 -0.13735074 0.39783883 0
0.23967485 -0.13366431 0.3904601 0
0.26586443 -0.13033098 0.39335009 0
0.27147347 -0.13401335 0.39553019 0
0.29345649 -0.13964146 0.3976154 0
0.30194336 -0.13367862 0.39582908 0
0.32485706 -0.13359302 0.39729744 0
0.35317534 -0.13632268 0.39516777 0
0.36136764 -0.13819712 0.39518186 0
0.37509924 -0.13122648 0.39891478 0
0.40536195 -0.13436717 0.39743665 0
0.42462426 -0.13603896 0.39623639 0
0.43301231 -0.13715047 0.39690372 0
1.2547365 -0.13731068 0.39693516 0
1.2626234 -0.13299912 0.39677307 0
1.2874969 -0.13706321 0.3992568 0
1.2916178 -0.13526243 0.39941809 0
1.3164188 -0.13380784 0.3961817 0
1.3293566 -0.13812798 0.39403141 0
1.347324 -0.13427085 0.39909792 0
1.3533415 -0.13103741 0.39836952 0
