# .PCD v0.7 - Point Cloud Data file format
VERSION 0.7
FIELDS x y z rgb
SIZE 4 4 4 4
TYPE F F F F
COUNT 1 1 1 1
WIDTH 1352
HEIGHT 1
VIEWPOINT 0 0 0 1 0 0 0
POINTS 1352
DATA ascii
4.5489774 -2.1675704 0.001739502 0
4.5536728 -2.1907561 0.0011365414 0
4.5570259 -2.2136655 0.0010416508 0
4.5639448 -2.2376485 -0.00038468838 0
4.5594511 -2.2585042 0.0024665594 0
4.5677752 -2.2830682 0.00052392483 0
4.5721898 -2.3066142 4.9114227e-05 0
4.5698767 -2.3282418 0.0020923615 0
4.5802212 -2.3537459 -0.00058722496 0
4.585947 -2.3779781 -0.0015358925 0
4.5835323 -2.3997633 0.00055503845 0
4.5848074 -2.4227567 0.0012737513 0
4.5971861 -2.4494171 -0.0021369457 0
4.5845833 -2.468034 0.0037531853 0
4.6009874 -2.4962785 -0.0011408329 0
4.5916119 -2.5159976 0.0035510063 0
4.5980554 -2.5411308 0.0023705959 0
4.5992184 -2.5645444 0.0031548738 0
4.6105814 -2.5916507 0.00016319752 0
4.609261 -2.6143715 0.0018777847 0
4.6122622 -2.6387215 0.0019960403 0
4.6105504 -2.661422 0.0038616657 0
4.617003 -2.6872375 0.0027136803 0
4.6300368 -2.7156928 -0.00085711479 0
4.6302905 -2.7394216 0.00029814243 0
4.6337647 -2.7644832 0.0002695322 0
4.6379399 -2.7899308 -1.1205673e-05 0
4.6377392 -2.8137381 0.0013247728 0
4.6395593 -2.8384399 0.0019212961 0
4.6468749 -2.8655019 0.0005030632 0
4.654798 -2.8929722 -0.0011301041 0
4.6470442 -2.9139769 0.0029983521 0
4.665504 -2.9462028 -0.0024855137 0
4.6641431 -2.9701138 -0.00069224834 0
4.66783 -2.996309 -0.00074350834 0
4.6633296 -3.0189896 0.0022069216 0
4.675107 -3.0490289 -0.00079107285 0
4.6776381 -3.0750735 -0.000400424 0
4.6751089 -3.0989032 0.0018433332 0
4.6878362 -3.1299069 -0.0014734268 0
4.6982603 -3.1600568 -0.0039385557 0
4.6860371 -3.179606 0.0018527508 0
4.6841125 -3.2040873 0.0038956404 0
4.6974888 -3.2361135 0.00038051605 0
4.7077794 -3.2668633 -0.0020011663 0
4.7059302 -3.2917635 3.4332275e-05 0
4.7062168 -3.3178234 0.0012996197 0
4.7050896 -3.3432667 0.0030827522 0
4.7094107 -3.3716152 0.0028983355 0
4.7186999 -3.4027135 0.0009251833 0
4.7208114 -3.4302356 0.0015572309 0
4.7370138 -3.4654114 -0.0028917789 0
4.7305322 -3.4886503 0.00085902214 0
4.7348738 -3.5178273 0.00071060658 0
4.73634 -3.5455854 0.0016064644 0
4.7456627 -3.5778525 -0.00031816959 0
4.7471194 -3.6059217 0.00059783459 0
4.7532148 -3.6367657 -0.00014543533 0
4.7531714 -3.6642792 0.001324892 0
4.7641315 -3.6983018 -0.0011440516 0
4.7625809 -3.7252471 0.00088322163 0
4.7664194 -3.7554948 0.00098693371 0
4.7802873 -3.7919219 -0.0024871826 0
4.7743721 -3.8166902 0.0011242628 0
4.7836876 -3.850822 -0.00069880486 0
4.7842808 -3.8798258 0.00060260296 0
4.7887535 -3.9113927 0.00052905083 0
4.7951245 -3.9443514 -0.00020980835 0
4.8005691 -3.9769435 -0.00060725212 0
4.7994995 -4.0055728 0.0013216734 0
4.806716 -4.0397029 0.0003156662 0
4.815268 -4.0749502 -0.0011514425 0
4.8130631 -4.1033554 0.0012077093 0
4.8242116 -4.1407919 -0.0011544228 0
4.8234773 -4.1705303 0.00070273876 0
4.8330998 -4.2074594 -0.0010920763 0
4.8335347 -4.2383747 0.00037193298 0
4.8407412 -4.2741504 -0.00054359436 0
4.8499546 -4.311594 -0.0021518469 0
4.8496733 -4.342629 -0.00040268898 0
4.8536458 -4.3768668 -0.00014019012 0
4.8537688 -4.4085674 0.001486659 0
4.8605452 -4.4452777 0.00078833103 0
4.8701978 -4.4843688 -0.00090384483 0
4.8716602 -4.5177236 0.00028884411 0
4.8732195 -4.5513601 0.0014592409 0
4.8839107 -4.5920863 -0.00055134296 0
4.8922706 -4.6313834 -0.0017296076 0
4.8975143 -4.6686068 -0.0018042326 0
4.8950362 -4.7001324 0.00082623959 0
4.9005919 -4.7381005 0.00066947937 0
4.911798 -4.780807 -0.0014367104 0
4.9182086 -4.8200741 -0.0018576384 0
4.9158626 -4.8526273 0.00077557564 0
4.9301257 -4.8988056 -0.0023373365 0
4.9328685 -4.9360094 -0.0014395714 0
4.9308434 -4.9695539 0.0011211634 0
4.9425263 -5.0146904 -0.0010420084 0
4.9394784 -5.0478849 0.0018984079 0
4.9555063 -5.0974078 -0.0017249584 0
4.9528999 -5.1315136 0.0010918379 0
4.9632425 -5.1769743 -0.00053262711 0
4.975337 -5.2243638 -0.0027371645 0
4.9736199 -5.2600961 -0.0001809597 0
4.9873719 -5.309731 -0.0029120445 0
4.9900708 -5.3499932 -0.0018355846 0
5.0006652 -5.397666 -0.0034412146 0
4.99856 -5.4342594 -0.00068819523 0
5.0061779 -5.4799957 -0.0012373924 0
5.0145354 -5.5268207 -0.0020167828 0
5.0123234 -5.5642281 0.00082063675 0
5.0262313 -5.6170325 -0.0018037558 0
5.033896 -5.6644492 -0.0022823811 0
5.0343728 -5.7054272 -0.0003029108 0
5.0490336 -5.7603951 -0.0031062365 0
5.0505433 -5.8031378 -0.0014357567 0
5.0567951 -5.8508768 -0.0013471842 0
5.0600405 -5.8960762 -0.00022256374 0
5.0728211 -5.9511757 -0.0022870302 0
5.0770974 -5.9982777 -0.0014631748 0
5.0782828 -6.0426612 0.00042068958 0
5.087482 -6.0956211 -0.00036251545 0
5.1012115 -6.1537781 -0.0026348829 0
5.1000829 -6.197072 9.2029572e-05 0
5.1074109 -6.249599 1.4543533e-05 0
5.1155787 -6.3035264 -0.00031602383 0
5.1287575 -6.3633423 -0.002286315 0
5.1279392 -6.4087086 0.00042927265 0
5.1391249 -6.4675093 -0.0008187294 0
5.1486168 -6.5250683 -0.0014727116 0
5.1600814 -6.5854039 -0.0027480125 0
5.1580029 -6.6312771 0.00048482418 0
5.170783 -6.6942573 -0.0011628866 0
5.1822753 -6.7564645 -0.0023502111 0
5.1922045 -6.8175554 -0.0029877424 0
5.1955047 -6.8716493 -0.0014144182 0
5.2021141 -6.9301295 -0.00089788437 0
5.2115397 -6.9925251 -0.0012706518 0
5.2180076 -7.0520949 -0.00064110756 0
5.2312303 -7.1203613 -0.0021818876 0
5.2389212 -7.1827412 -0.0018800497 0
5.2509236 -7.2510376 -0.002944231 0
5.2530065 -7.3079529 -0.00074791908 0
5.263309 -7.3756142 -0.0011839867 0
5.2749701 -7.4457388 -0.0020184517 0
5.2797265 -7.5079885 -0.0005812645 0
5.2886634 -7.5762196 -0.00045537949 0
5.3000846 -7.6484127 -0.0010873079 0
5.3162861 -7.7276316 -0.0032093525 0
5.3228402 -7.7952533 -0.0021877289 0
5.3385139 -7.8756342 -0.0040426254 0
5.3344746 -7.9308734 0.00044834614 0
5.3562293 -8.0211716 -0.0032501221 0
5.3668985 -8.097683 -0.0033608675 0
5.3747315 -8.1712656 -0.002522707 0
5.3822231 -8.2452612 -0.0015294552 0
5.3979206 -8.3315172 -0.0030832291 0
5.4029803 -8.4040127 -0.0012228489 0
5.4166727 -8.4895487 -0.0020339489 0
5.4315181 -8.5778275 -0.0031490326 0
5.4406028 -8.6589861 -0.0023977757 0
5.4576731 -8.7527409 -0.0040895939 0
5.4672813 -8.8368416 -0.0033866167 0
5.4741077 -8.9179211 -0.001760602 0
5.484776 -9.0057507 -0.0012731552 0
5.5013537 -9.1036119 -0.002556324 0
5.5118809 -9.1936455 -0.0018978119 0
5.5279183 -9.2933073 -0.0028753281 0
5.5379062 -9.3850117 -0.0019185543 0
5.5515127 -9.483593 -0.0020071268 0
5.5675068 -9.5872955 -0.0027543306 0
5.5837827 -9.6929159 -0.0035102367 0
5.5961266 -9.7937441 -0.0029884577 0
5.6100016 -9.898469 -0.0028569698 0
1.4990442 -5.407443 1.3602794 0
1.4772851 -5.4012227 1.3684217 0
1.4591978 -5.4065819 1.3757465 0
1.4367344 -5.3974838 1.3840109 0
1.4179264 -5.4001799 1.3914754 0
1.3986018 -5.4010248 1.3990432 0
1.3789994 -5.4007635 1.4066607 0
1.3584687 -5.3970675 1.4144583 0
1.3407123 -5.402956 1.421682 0
1.3188735 -5.3940973 1.4297159 0
1.3014286 -5.4009242 1.4368681 0
1.2817059 -5.3992963 1.4444603 0
1.2636341 -5.4037113 1.4517289 0
1.2433476 -5.3995552 1.4594071 0
1.2228194 -5.3941388 1.4671127 0
1.2047902 -5.3983455 1.4743538 0
1.1859472 -5.3992248 1.4817359 0
1.164452 -5.3889966 1.4895637 0
1.1492789 -5.4048524 1.4963084 0
1.1292611 -5.4003482 1.5038636 0
1.1099317 -5.3985162 1.5112919 0
1.0923946 -5.4044275 1.5184314 0
1.0735686 -5.4045525 1.5257672 0
1.0538621 -5.4004431 1.5332218 0
1.0355055 -5.4023767 1.5404704 0
1.0152905 -5.3952703 1.5479648 0
0.99754697 -5.3998632 1.5551151 0
0.97955191 -5.4032226 1.5622982 0
0.96177858 -5.4077029 1.5694542 0
0.94222087 -5.4028592 1.5768123 0
0.92477506 -5.4089642 1.5839266 0
0.9046132 -5.4002838 1.5913171 0
0.88630557 -5.4014497 1.598506 0
0.8678202 -5.4014897 1.6057045 0
0.84922266 -5.4007115 1.6129036 0
0.83142853 -5.4045935 1.620036 0
0.81118339 -5.3933182 1.6273218 0
0.79324567 -5.3959746 1.6344454 0
0.77515435 -5.397615 1.6415752 0
0.75706011 -5.3991714 1.6487017 0
0.7396875 -5.4056506 1.6558073 0
0.71959436 -5.392993 1.6629609 0
0.70204175 -5.3980455 1.6700612 0
0.6833061 -5.3943114 1.6771579 0
0.66651487 -5.4053698 1.684279 0
0.64763224 -5.4001408 1.6913538 0
0.62966537 -5.40204 1.6984488 0
0.61007071 -5.3898506 1.7054331 0
0.59279191 -5.3973746 1.7125574 0
0.57494819 -5.4000683 1.7196465 0
0.55708224 -5.4026132 1.7267362 0
0.53777468 -5.3906927 1.7336229 0
0.5198164 -5.3917851 1.7406719 0
0.50245231 -5.3993616 1.7478322 0
0.48474494 -5.4035659 1.7549479 0
0.46641713 -5.4005475 1.7619236 0
0.4488686 -5.4069748 1.7690949 0
0.43055317 -5.4036918 1.7760518 0
0.41244239 -5.4027939 1.7830551 0
0.39405209 -5.3974447 1.7899319 0
0.37658489 -5.4060669 1.7971876 0
0.35779458 -5.3930616 1.8038156 0
0.33981797 -5.3929873 1.8108101 0
0.32242525 -5.4044342 1.8181859 0
0.30394164 -5.3940988 1.8248357 0
0.28628945 -5.4014521 1.8320963 0
0.26817128 -5.397974 1.838966 0
0.25038469 -5.4033732 1.8461757 0
0.23225516 -5.3986182 1.8529825 0
0.21444422 -5.4047055 1.860238 0
0.1963917 -5.4018235 1.8671137 0
0.1783161 -5.3962398 1.8738556 0
0.1603719 -5.3970733 1.8808855 0
0.14247082 -5.4033961 1.8881885 0
0.12447885 -5.402391 1.8951398 0
0.10649703 -5.4049196 1.9022739 0
0.08847858 -5.4119802 1.9096617 0
0.070492595 -5.4056606 1.9163297 0
0.052611195 -5.3941736 1.9226842 0
0.034390979 -5.4109097 1.9306617 0
0.016471669 -5.4046111 1.937305 0
-0.0013908371 -5.3978133 1.9438999 0
-0.019699253 -5.40906 1.9516217 0
-0.037628911 -5.4051023 1.9583926 0
-0.055499576 -5.4001751 1.9650896 0
-0.073671885 -5.4036398 1.9723471 0
-0.09149725 -5.3983078 1.979005 0
-0.10968179 -5.4011745 1.9862359 0
-0.1278291 -5.4026585 1.9933791 0
-0.14531854 -5.3919792 1.9996235 0
-0.16365936 -5.3966999 2.0070133 0
-0.18223125 -5.4042068 2.0146401 0
-0.19965255 -5.3937755 2.0208712 0
-0.21783251 -5.3947964 2.0280027 0
-0.23607233 -5.3962889 2.0351825 0
-0.25461406 -5.4011703 2.0426586 0
-0.27274537 -5.4005432 2.049684 0
-0.29151076 -5.4069028 2.0573256 0
-0.31019148 -5.4115934 2.064846 0
-0.32674414 -5.3938074 2.0703504 0
-0.34578773 -5.4018474 2.0781889 0
-0.36318022 -5.3934183 2.0845146 0
-0.38242647 -5.4023299 2.0924783 0
-0.39989492 -5.3947868 2.0988803 0
-0.42067173 -5.4156203 2.1080694 0
-0.43733618 -5.4011812 2.1137941 0
-0.45552209 -5.3995461 2.1207876 0
-0.47538742 -5.4106922 2.1291103 0
-0.4925845 -5.4011483 2.1353009 0
-0.51043445 -5.3966899 2.1420145 0
-0.52943498 -5.4003448 2.1496046 0
-0.54815936 -5.4017229 2.1569669 0
-0.56685066 -5.4026208 2.1642911 0
-0.58433396 -5.3955226 2.1707225 0
-0.60300112 -5.3960123 2.1780155 0
-0.6221658 -5.3993187 2.1856511 0
-0.63980752 -5.3932266 2.1921973 0
-0.66094464 -5.4074922 2.20118 0
-0.67826813 -5.3993235 2.2074924 0
-0.69612646 -5.3943024 2.2141795 0
-0.7151106 -5.3953929 2.2216277 0
-0.73614061 -5.4070334 2.2304299 0
-0.75346631 -5.3988743 2.2367439 0
-0.77422619 -5.4081998 2.2453184 0
-0.79104412 -5.3974805 2.2512994 0
-0.81080735 -5.4012547 2.2591929 0
-0.83202046 -5.4115505 2.2679954 0
-0.84909487 -5.40204 2.2741399 0
-0.86811811 -5.4015789 2.2815213 0
-0.88893592 -5.4089489 2.2900152 0
-0.90751886 -5.4060674 2.2970977 0
-0.9257977 -5.4017997 2.3039882 0
-0.94550872 -5.4035344 2.3117533 0
-0.96604645 -5.4084349 2.3200078 0
-0.98356831 -5.400713 2.3264213 0
-1.0038481 -5.4040813 2.3344941 0
-1.0240349 -5.4067774 2.3424954 0
-1.0418644 -5.4000988 2.3490839 0
-1.0628248 -5.4053211 2.3575196 0
-1.0835969 -5.4094739 2.3658259 0
-1.0993062 -5.3947325 2.3711627 0
-1.1202084 -5.3990092 2.3795261 0
-1.1418916 -5.4057279 2.3883224 0
-1.1610572 -5.4032445 2.3956525 0
-1.1828214 -5.4095821 2.4044604 0
-1.1980816 -5.3934989 2.4095516 0
-1.2204028 -5.4012618 2.4186513 0
-1.2394371 -5.3977976 2.4258785 0
-1.2607822 -5.4017186 2.4343956 0
-1.2809553 -5.401588 2.4422421 0
-1.2998142 -5.3971334 2.4493487 0
-1.3199966 -5.3967099 2.4571834 0
-1.3436108 -5.4065847 2.4668984 0
-1.3591094 -5.3915367 2.472137 0
-1.3818852 -5.398324 2.4813623 0
-1.4044441 -5.4040909 2.4904494 0
-1.4261582 -5.4070592 2.4990597 0
-1.4449552 -5.4014273 2.5060799 0
-1.4653268 -5.4001718 2.5139444 0
-1.487763 -5.4044819 2.5229065 0
3.4964774 -1.0777208 0.40769315 0
3.4999731 -1.0936348 0.40723217 0
3.5023475 -1.1095439 0.40718973 0
3.5043805 -1.1254636 0.4072752 0
3.4996562 -1.1411078 0.40987027 0
3.5034177 -1.1571239 0.40931535 0
3.4992914 -1.1727583 0.4116863 0
3.5015602 -1.1887292 0.41168666 0
3.4862094 -1.2036231 0.41821086 0
3.503093 -1.2205476 0.41280305 0
3.498085 -1.2360611 0.41549706 0
3.4980567 -1.2519162 0.41634917 0
3.5023987 -1.2681334 0.41558814 0
3.499294 -1.2837594 0.41757715 0
3.5021989 -1.2999095 0.41734934 0
3.5023646 -1.3158354 0.41813278 0
3.5047891 -1.3319981 0.4180851 0
3.4978673 -1.3472157 0.42147815 0
3.4973938 -1.3630848 0.42249727 0
3.4904547 -1.3782237 0.42589271 0
3.5001464 -1.3952844 0.42317832 0
3.502661 -1.4115633 0.42310309 0
3.5020013 -1.4274726 0.42419386 0
3.4902999 -1.4419231 0.42933142 0
3.5014834 -1.4594262 0.42608333 0
3.4962337 -1.4747125 0.42885566 0
3.5001404 -1.4913111 0.42827737 0
4.677803 -1.6860514 -0.0012493134 0
4.6948214 -1.710362 -0.0063151121 0
4.6788354 -1.7295381 0.00067353249 0
4.6960092 -1.7540901 -0.0044378042 0
4.6879563 -1.7745256 -0.00034546852 0
4.6995959 -1.7983663 -0.0034275055 0
4.6974583 -1.8198631 -0.0014880896 0
4.7032423 -1.842834 -0.0024291277 0
4.7149792 -1.8670187 -0.0055291653 0
4.706214 -1.8873584 -0.0011759996 0
4.7125883 -1.9106629 -0.0023196936 0
4.7121258 -1.9326656 -0.00097894669 0
4.7333798 -1.9592336 -0.0075073242 0
4.7253389 -1.9797803 -0.003413558 0
4.7213049 -2.0011606 -0.00077199936 0
4.7355456 -2.0266194 -0.0047396421 0
4.7381377 -2.0495958 -0.0044882298 0
4.7340436 -2.0710773 -0.0018188953 0
4.7411947 -2.095233 -0.0032078028 0
4.7483859 -2.1195078 -0.0046052933 0
4.7464375 -2.1416314 -0.0027031898 0
4.7478318 -2.1646218 -0.0020039082 0
4.7567425 -2.1896033 -0.004005909 0
4.7582831 -2.2127841 -0.0033512115 0
4.7563095 -2.2350864 -0.0014301538 0
4.7608495 -2.2591877 -0.0018465519 0
4.7737107 -2.2856855 -0.0052440166 0
4.7697892 -2.3076277 -0.0026146173 0
4.7776957 -2.3329735 -0.0042225122 0
4.7720189 -2.3544846 -0.00096023083 0
4.7858262 -2.3817732 -0.0046690702 0
4.7907276 -2.4065642 -0.005183816 0
4.7883019 -2.4292114 -0.0030757189 0
4.8000426 -2.4563053 -0.0060229301 0
4.7983742 -2.4793262 -0.0041778088 0
4.7992463 -2.5032043 -0.0032362938 0
4.7966938 -2.5260315 -0.0010710955 0
4.8120637 -2.5548396 -0.0052828789 0
4.8124204 -2.5788059 -0.0041438341 0
4.8260226 -2.6073675 -0.0077083111 0
4.8153162 -2.6276946 -0.0026307106 0
4.8165269 -2.6521733 -0.0017834902 0
4.8208246 -2.6778331 -0.0020269156 0
4.8228922 -2.7027965 -0.0014740229 0
4.8245606 -2.7277009 -0.00077533722 0
4.8385968 -2.7573035 -0.0044467449 0
4.8425546 -2.7833123 -0.0045444965 0
4.8468199 -2.8095522 -0.0047446489 0
4.8443217 -2.8332837 -0.0025520325 0
4.8599949 -2.8642149 -0.0067641735 0
4.8498178 -2.885078 -0.001855731 0
4.8626208 -2.9151959 -0.0050390959 0
4.8655195 -2.9414742 -0.0047272444 0
4.8698564 -2.9684591 -0.0049145222 0
4.8744092 -2.9956634 -0.005171299 0
4.8762612 -3.0218501 -0.0044730902 0
4.8812594 -3.0494955 -0.0048724413 0
4.880722 -3.0748677 -0.0033251047 0
4.8783112 -3.0994952 -0.0011173487 0
4.8910952 -3.1309724 -0.0042215586 0
4.8861065 -3.1546438 -0.0011017323 0
4.9015994 -3.1877232 -0.0051326752 0
4.909286 -3.2174516 -0.0064258575 0
4.9078307 -3.2430773 -0.0045220852 0
4.9132357 -3.2720342 -0.0050039291 0
4.9252863 -3.3043363 -0.0077902079 0
4.9200745 -3.3284996 -0.0045610666 0
4.9253511 -3.357852 -0.0049741268 0
4.9244452 -3.3842998 -0.003231883 0
4.924243 -3.4111953 -0.0017288923 0
4.9367633 -3.4446499 -0.0046294928 0
4.9325581 -3.4697747 -0.0017251968 0
4.947423 -3.5048537 -0.0054155588 0
4.9481115 -3.5327795 -0.0041903257 0
4.9518571 -3.5624492 -0.004014492 0
4.9498091 -3.5891733 -0.0018311739 0
4.9659476 -3.6258404 -0.0059127808 0
4.9652319 -3.6535895 -0.0041725636 0
4.9755149 -3.6875348 -0.0062115192 0
4.9675193 -3.7115085 -0.0019528866 0
4.9785767 -3.7462749 -0.0042372942 0
4.9838948 -3.7780254 -0.0045384169 0
4.9905224 -3.8107219 -0.0052785873 0
4.9946117 -3.8421519 -0.0051375628 0
4.9941392 -3.8710802 -0.0034257174 0
4.9978018 -3.9025972 -0.00312078 0
5.0032744 -3.935384 -0.0034245253 0
5.015873 -3.9727011 -0.0061496496 0
5.0195432 -4.0048437 -0.0058141947 0
5.0159397 -4.0326762 -0.0029910803 0
5.0222125 -4.0667849 -0.0035235882 0
5.0320611 -4.1033773 -0.0052598715 0
5.0385375 -4.1380959 -0.00583601 0
5.0392761 -4.1693573 -0.0044527054 0
5.0406904 -4.2012262 -0.0032893419 0
5.0513496 -4.2393384 -0.0052477121 0
5.0547986 -4.2729712 -0.0047507286 0
5.057138 -4.3060722 -0.0038676262 0
5.066237 -4.343936 -0.0052565336 0
5.0691371 -4.3778625 -0.0045388937 0
5.0716686 -4.4117451 -0.0036859512 0
5.0770712 -4.4478331 -0.003788352 0
5.0879474 -4.4880075 -0.0057183504 0
5.0927424 -4.5242057 -0.0055879354 0
5.0932803 -4.5576105 -0.0040159225 0
5.1054244 -4.5995798 -0.006324172 0
5.1053047 -4.6329784 -0.0045067072 0
5.1142707 -4.6732426 -0.0057182312 0
5.1129637 -4.7062125 -0.003480196 0
5.1272511 -4.7510309 -0.0064376593 0
5.119761 -4.77981 -0.0021125078 0
5.1315436 -4.8233757 -0.0042010546 0
5.1377859 -4.8630571 -0.0044265985 0
5.1423602 -4.9017463 -0.0040813684 0
5.1559644 -4.9477863 -0.0067189932 0
5.1543016 -4.9821825 -0.0042723417 0
5.1650624 -5.0266819 -0.0059294701 0
5.1693048 -5.0663233 -0.0054098368 0
5.1748261 -5.1072989 -0.0052973032 0
5.173717 -5.1431637 -0.0029793978 0
5.185462 -5.189868 -0.0048872232 0
5.1875029 -5.2289066 -0.0035774708 0
5.1923723 -5.2706022 -0.0031831264 0
5.2071242 -5.3210058 -0.0060178041 0
5.2145987 -5.3656616 -0.0064393282 0
5.2143841 -5.4040575 -0.0043210983 0
5.2265391 -5.4534874 -0.0062376261 0
5.2234674 -5.4900007 -0.003152132 0
5.2360826 -5.5406437 -0.0051759481 0
5.2447863 -5.5882673 -0.0058989525 0
5.2405443 -5.6246424 -0.0023838282 0
5.262145 -5.6847448 -0.0072617531 0
5.2646866 -5.7280016 -0.0059150457 0
5.2641382 -5.7687416 -0.0035479069 0
5.2734714 -5.8190041 -0.0043660402 0
5.2821674 -5.8691311 -0.0049532652 0
5.286675 -5.9157391 -0.004163146 0
5.2981138 -5.9693871 -0.0055881739 0
5.3035994 -6.0178003 -0.0050673485 0
5.3152905 -6.07269 -0.0065205097 0
5.3230309 -6.1242352 -0.0066758394 0
5.3307734 -6.1762609 -0.0068062544 0
5.3241611 -6.2144203 -0.0023111105 0
5.3406715 -6.2761497 -0.0052013397 0
5.3459439 -6.3270988 -0.004466176 0
5.3543735 -6.3817568 -0.0047137737 0
5.3674774 -6.441782 -0.0064221621 0
5.3733039 -6.494833 -0.005782485 0
5.3772416 -6.5463953 -0.0045164824 0
5.3896575 -6.6074352 -0.0059138536 0
5.3949561 -6.6614914 -0.0050239563 0
5.400414 -6.7162352 -0.0041567087 0
5.4086576 -6.7745428 -0.0041408539 0
5.4242716 -6.8415403 -0.0064166784 0
5.4262791 -6.8941946 -0.0043717623 0
5.4422822 -6.962986 -0.0066976547 0
5.4468813 -7.0196877 -0.0054057837 0
5.458252 -7.08465 -0.0062046051 0
5.4656286 -7.1457338 -0.0057178736 0
5.4763937 -7.2113733 -0.0062547922 0
5.4865575 -7.2770233 -0.0065661669 0
5.4954777 -7.3419247 -0.0064531565 0
5.5047784 -7.4079781 -0.0064208508 0
5.5181088 -7.4795799 -0.0075995922 0
5.526238 -7.5457134 -0.0071256161 0
5.5340781 -7.6122169 -0.006524086 0
5.5383229 -7.6750307 -0.0047754049 0
5.5541563 -7.7528791 -0.0065574646 0
5.5664611 -7.8272409 -0.0072063208 0
5.5709734 -7.8926373 -0.0054204464 0
5.5850897 -7.9709711 -0.0065352917 0
5.5948739 -8.0446787 -0.006277442 0
5.6081748 -8.1237993 -0.0070458651 0
5.6196957 -8.2015476 -0.0072222948 0
5.631906 -8.2811337 -0.007558465 0
5.6460705 -8.3642836 -0.0084358454 0
5.6523933 -8.4379406 -0.0068877935 0
5.6676474 -8.5245457 -0.0079885721 0
5.6740689 -8.6001816 -0.0063723326 0
5.6872959 -8.6860914 -0.0067526102 0
5.6959043 -8.7666655 -0.0056914091 0
5.7096577 -8.855442 -0.006116271 0
5.7228613 -8.9445791 -0.0063166618 0
5.7351227 -9.0335169 -0.0061756372 0
5.7526321 -9.1311588 -0.007532835 0
5.7656331 -9.2235527 -0.0074849129 0
5.7801785 -9.3194227 -0.0078290701 0
5.786818 -9.4048681 -0.0057736635 0
5.807353 -9.5121546 -0.0077489614 0
5.8180156 -9.6060572 -0.0067474842 0
5.8325291 -9.7070637 -0.0068069696 0
5.851336 -9.8160448 -0.0080471039 0
5.8615685 -9.9132776 -0.0067080259 0
1.4853579 -5.3999281 1.3882697 0
1.4668989 -5.4044027 1.3954017 0
1.4485793 -5.4092894 1.4025035 0
1.4277787 -5.4058857 1.410092 0
1.4090431 -5.4091816 1.4172648 0
1.3859444 -5.3974333 1.4252688 0
1.369527 -5.4084272 1.4319842 0
1.344925 -5.3906279 1.4402285 0
1.3275836 -5.3981886 1.4471068 0
1.3085817 -5.3997564 1.4542873 0
1.2903134 -5.4039268 1.461332 0
1.2693576 -5.3979206 1.4688404 0
1.2534037 -5.4107361 1.4754794 0
1.2314842 -5.4005356 1.483125 0
1.2121224 -5.3999662 1.4903265 0
1.1926783 -5.3988771 1.4975312 0
1.1752082 -5.4056959 1.5044183 0
1.1552817 -5.4023085 1.5116811 0
1.1356552 -5.3999071 1.5188843 0
1.1173382 -5.4029388 1.5258867 0
1.0992656 -5.4069986 1.5328524 0
1.0798991 -5.4052124 1.5399911 0
1.0616387 -5.4082804 1.5469742 0
1.0419241 -5.404479 1.554136 0
1.0227484 -5.4029388 1.5612165 0
1.0034485 -5.4005642 1.5682991 0
0.98451042 -5.3997307 1.5753282 0
0.96613944 -5.4015903 1.5822886 0
0.94774389 -5.4032431 1.5892471 0
0.92839086 -5.3997011 1.5962876 0
0.9092375 -5.396925 1.6032941 0
0.88991249 -5.3928976 1.6102984 0
0.87307453 -5.4027405 1.6171099 0
0.85391951 -5.3993301 1.6240833 0
0.83501053 -5.3970699 1.6310259 0
0.81680274 -5.3988523 1.6379213 0
0.79863226 -5.4008083 1.6448119 0
0.78138232 -5.4086981 1.6516736 0
0.76047766 -5.3924513 1.6586192 0
0.74292254 -5.398138 1.665478 0
0.72610533 -5.4092274 1.6723479 0
0.70695126 -5.4037971 1.6792138 0
0.68720579 -5.3934269 1.6860384 0
0.67028451 -5.4041538 1.692928 0
0.65177488 -5.4027081 1.6997646 0
0.6327343 -5.3966007 1.7065523 0
0.61424959 -5.3946848 1.7133547 0
0.59487319 -5.384532 1.720053 0
0.57868302 -5.4029284 1.7270765 0
0.5605939 -5.4043741 1.7339096 0
0.54287452 -5.4094973 1.7407998 0
0.52332461 -5.3957872 1.7473742 0
0.50576186 -5.4023972 1.7542847 0
0.48747441 -5.4012051 1.7610519 0
0.46939602 -5.402256 1.7678601 0
0.4511185 -5.4007626 1.7746075 0
0.43328214 -5.4048386 1.7814859 0
0.41546658 -5.409543 1.7883898 0
0.39646518 -5.3969603 1.794819 0
0.37822336 -5.3946972 1.8015124 0
0.36087057 -5.4071398 1.8086541 0
0.34277344 -5.4076872 1.8154426 0
0.32457164 -5.4061232 1.822158 0
0.30657575 -5.4086151 1.8290118 0
0.28801239 -5.3980331 1.8353837 0
0.2701962 -5.4046507 1.8423893 0
0.25191778 -5.3991852 1.8489263 0
0.2336839 -5.3936167 1.8554412 0
0.2158075 -5.4000273 1.8624583 0
0.1977931 -5.4024448 1.8693151 0
0.17983353 -5.40905 1.8763738 0
0.16155601 -5.3961926 1.8825181 0
0.143501 -5.3958378 1.8892429 0
0.12550886 -5.4068241 1.8965461 0
0.10740413 -5.4015636 1.9030291 0
0.089362703 -5.388236 1.9090602 0
0.071217045 -5.4051933 1.9167378 0
0.053205293 -5.3970499 1.9230331 0
0.03515821 -5.3953362 1.9296829 0
0.016872086 -5.4064884 1.9371047 0
-0.0010118484 -5.3962326 1.94324 0
-0.019034997 -5.3938637 1.949846 0
-0.037378222 -5.4019957 1.957129 0
-0.05535382 -5.3977318 1.9636166 0
-0.073860884 -5.4074821 1.9710467 0
-0.091602623 -5.3977528 1.9771569 0
-0.11002104 -5.4035654 1.9843447 0
-0.12786525 -5.3972368 1.9906738 0
-0.14614387 -5.3993454 1.9976128 0
-0.16484001 -5.4078751 2.0050488 0
-0.18248776 -5.3988581 2.0111616 0
-0.20102474 -5.4036694 2.0183406 0
-0.21848112 -5.3928947 2.0242887 0
-0.23727599 -5.4004793 2.0317113 0
-0.25532821 -5.3979311 2.0383186 0
-0.27371901 -5.3994064 2.0452662 0
-0.29232398 -5.4029474 2.052403 0
-0.31109917 -5.4077997 2.0596733 0
-0.32866892 -5.3997021 2.0658057 0
-0.34807324 -5.4100885 2.0736046 0
-0.36532512 -5.3991594 2.0794683 0
-0.38365239 -5.3986235 2.0862851 0
-0.40180787 -5.3964376 2.0929503 0
-0.4202868 -5.3969431 2.099879 0
-0.43950424 -5.4032431 2.1073914 0
-0.45720193 -5.3969603 2.113668 0
-0.47571865 -5.3971376 2.1205935 0
-0.49482343 -5.4014616 2.1279588 0
-0.51213133 -5.3924551 2.1339452 0
-0.53292406 -5.4080343 2.1425383 0
-0.55077934 -5.4026775 2.1489229 0
-0.56938136 -5.4023418 2.1558533 0
-0.58779156 -5.4006081 2.1626375 0
-0.60692108 -5.4032545 2.1699228 0
-0.62447298 -5.3960104 2.1760941 0
-0.64320886 -5.3959408 2.1830883 0
-0.66295075 -5.4014874 2.1907566 0
-0.68193531 -5.402317 2.1978912 0
-0.69985044 -5.3970432 2.2043028 0
-0.72206604 -5.4149084 2.2135487 0
-0.73720717 -5.394659 2.2181292 0
-0.75639641 -5.3958883 2.2253618 0
-0.77705348 -5.4042454 2.233521 0
-0.79548049 -5.4011002 2.2402363 0
-0.81323409 -5.3946581 2.2465255 0
-0.83491206 -5.406786 2.2552662 0
-0.85298502 -5.4015875 2.2617404 0
-0.87148476 -5.3983374 2.2684779 0
-0.89224923 -5.405077 2.2765911 0
-0.91054165 -5.4006033 2.283186 0
-0.92912686 -5.3973608 2.2899556 0
-0.94958651 -5.4019098 2.2978387 0
-0.96626246 -5.3905201 2.3034627 0
-0.9875536 -5.3980131 2.3118129 0
-1.0089777 -5.4055805 2.3202164 0
-1.0242767 -5.3887787 2.3250389 0
-1.0478103 -5.4039631 2.3346348 0
-1.0652632 -5.3954992 2.3407044 0
-1.0879265 -5.406456 2.3497508 0
-1.1059301 -5.3998556 2.3561249 0
-1.1268712 -5.4038248 2.3641572 0
-1.1465607 -5.4030495 2.37147 0
-1.1662784 -5.4022036 2.3787899 0
-1.1866648 -5.4034786 2.386472 0
-1.2055675 -5.399518 2.393322 0
-1.2266651 -5.40277 2.4013748 0
-1.2448113 -5.3960762 2.4077969 0
-1.2666228 -5.4011936 2.4162154 0
-1.2848921 -5.3947172 2.4226952 0
-1.3047072 -5.3930693 2.4300089 0
-1.3248681 -5.3923378 2.4375002 0
-1.3456287 -5.3932543 2.445303 0
-1.3660102 -5.3928089 2.4528921 0
-1.3883964 -5.3981047 2.4615345 0
-1.4108108 -5.4031382 2.4701736 0
-1.4310554 -5.4015942 2.477653 0
-1.4493508 -5.3943577 2.4841022 0
-1.4732848 -5.4029016 2.4934955 0
-1.4912643 -5.3945637 2.4997683 0
3.4904881 -1.0742331 0.47610855 0
3.5016046 -1.0902361 0.47302878 0
3.5036726 -1.1060388 0.47314131 0
3.5053856 -1.1218489 0.47337985 0
3.5025904 -1.137484 0.47520494 0
3.4998314 -1.1530983 0.47701609 0
3.4911182 -1.1683798 0.4809171 0
3.5042164 -1.184824 0.4771595 0
3.5014884 -1.200422 0.47895873 0
3.4936488 -1.2156626 0.48254836 0
3.5023265 -1.2320046 0.48035002 0
3.5073833 -1.2481611 0.47942352 0
3.503299 -1.2636405 0.48169661 0
3.503855 -1.2794828 0.4823463 0
3.4978819 -1.2947558 0.48527706 0
3.4958231 -1.3103507 0.48683929 0
3.4985797 -1.3264104 0.48672175 0
3.5016475 -1.3425384 0.48649788 0
3.4989634 -1.3580853 0.48827875 0
3.4993906 -1.3739691 0.48897648 0
3.5050113 -1.3904779 0.48786926 0
3.5024409 -1.4060535 0.48961139 0
3.5017412 -1.4218554 0.4907037 0
3.5013354 -1.4377035 0.49169433 0
3.5052044 -1.4541436 0.49120343 0
3.4992287 -1.4692514 0.4941262 0
3.4917731 -1.4841037 0.49755907 0
4.9441147 -1.717895 -0.0040361881 0
4.9389606 -1.7398598 -0.0010378361 0
4.9499526 -1.7643759 -0.003618598 0
4.9484196 -1.7869662 -0.0018686056 0
4.9543195 -1.8108244 -0.0026818514 0
4.9566178 -1.8341415 -0.0022492409 0
4.961843 -1.8580315 -0.0028219223 0
4.9615645 -1.8809946 -0.0014961958 0
4.9642582 -1.9045436 -0.0011911392 0
4.9643598 -1.9276512 7.9870224e-06 0
4.9715171 -1.952185 -0.001214385 0
4.9829488 -1.9776847 -0.0038981438 0
4.9755087 -1.9994254 -0.00010251999 0
4.9890575 -2.0255723 -0.0035010576 0
4.9844818 -2.0479641 -0.00068473816 0
4.9884706 -2.0722444 -0.00079894066 0
4.9801364 -2.0938179 0.0033041239 0
4.9878068 -2.1190445 0.0019372702 0
4.9946933 -2.1442015 0.00084412098 0
4.9970427 -2.1683762 0.001304388 0
5.0058541 -2.1942017 -0.00043439865 0
5.0164766 -2.2206097 -0.0027830601 0
5.0117192 -2.2432449 0.00011086464 0
5.014554 -2.267853 0.00042259693 0
5.0174875 -2.2925622 0.00070464611 0
5.0278649 -2.3193562 -0.0015366077 0
5.0316405 -2.3444886 -0.001529932 0
5.039484 -2.3708456 -0.0028977394 0
5.0386024 -2.3948512 -0.0013024807 0
5.0414739 -2.4199865 -0.00097572803 0
5.0446849 -2.4453044 -0.00075924397 0
5.0550847 -2.4728599 -0.0029678345 0
5.0556388 -2.4975812 -0.0018427372 0
5.0644073 -2.524904 -0.0034861565 0
5.0632596 -2.5492606 -0.0017783642 0
5.0704141 -2.5763128 -0.0028649569 0
5.0744109 -2.6024764 -0.0028814077 0
5.0652876 -2.6244252 0.0015209913 0
5.0760589 -2.652992 -0.00076496601 0
5.0807271 -2.6796629 -0.00099205971 0
5.0920448 -2.7087359 -0.003444314 0
5.0927668 -2.7342911 -0.0023339987 0
5.0943832 -2.7602396 -0.0015195608 0
5.0998664 -2.7876654 -0.001994729 0
5.1036654 -2.8146036 -0.0018997192 0
5.1070657 -2.8415077 -0.001665473 0
5.1072316 -2.8673081 -0.0003452301 0
5.1091161 -2.8938389 0.00040555 0
5.1145172 -2.9218206 -1.0728836e-05 0
5.1127367 -2.9471335 0.0019724369 0
5.1247048 -2.9779458 -0.0006172657 0
5.1334534 -3.007674 -0.0021252632 0
5.1452427 -3.0388107 -0.0046342611 0
5.1407871 -3.0634756 -0.0017389059 0
5.1478796 -3.0929899 -0.0026720762 0
5.1381421 -3.1155674 0.0019813776 0
5.1461906 -3.1457262 0.00074422359 0
5.159709 -3.178426 -0.0022932291 0
5.1621714 -3.2065227 -0.0016633272 0
5.1681657 -3.2363038 -0.0021935701 0
5.167264 -3.2631524 -0.00043928623 0
5.1690207 -3.2912943 0.00044286251 0
5.1783371 -3.3230257 -0.0011590719 0
5.1792393 -3.3510487 1.9311905e-05 0
5.1823039 -3.3801985 0.00049245358 0
5.1904936 -3.4119248 -0.0007109642 0
5.1860924 -3.4377871 0.0022292137 0
5.1942673 -3.4698286 0.0010479689 0
5.2082911 -3.5049481 -0.0020390749 0
5.2062168 -3.5323205 0.00015795231 0
5.2127695 -3.5641248 -0.00046169758 0
5.2277369 -3.6004 -0.0038210154 0
5.2304049 -3.630631 -0.0031498671 0
5.2309093 -3.6598833 -0.001765132 0
5.2314272 -3.6892698 -0.00037765503 0
5.2326946 -3.7191823 0.00077235699 0
5.2403364 -3.7526586 -0.00014352798 0
5.2451634 -3.7848201 -0.0001333952 0
5.2536716 -3.819186 -0.001308322 0
5.2559223 -3.8503098 -0.00044167042 0
5.2721767 -3.889441 -0.004103899 0
5.2636857 -3.9148829 0.00026142597 0
5.2777767 -3.9532831 -0.0026739836 0
5.2812877 -3.9858727 -0.0021749735 0
5.2883244 -4.0207047 -0.0028042793 0
5.2845292 -4.0493727 7.1048737e-05 0
5.2855368 -4.0810032 0.0014051199 0
5.3031301 -4.1227803 -0.002589941 0
5.3004184 -4.1525726 -3.7789345e-05 0
5.3068452 -4.1880975 -0.00041401386 0
5.3192911 -4.2275915 -0.0027087927 0
5.3237267 -4.2623763 -0.0024198294 0
5.326561 -4.2963653 -0.0016065836 0
5.3336196 -4.33325 -0.0021338463 0
5.3412127 -4.3707352 -0.0028182268 0
5.3345666 -4.399209 0.0010561943 0
5.3463702 -4.4399033 -0.00094711781 0
5.3561401 -4.4795709 -0.0022854805 0
5.3589191 -4.514854 -0.0013833046 0
5.3693657 -4.555542 -0.0029067993 0
5.3672438 -4.5879598 -0.00042307377 0
5.3765807 -4.6284399 -0.0015645027 0
5.378305 -4.6639299 -0.00027823448 0
5.3987398 -4.7127819 -0.0049006939 0
5.3908482 -4.7420087 -0.00054526329 0
5.3915944 -4.7775126 0.0010881424 0
5.4007077 -4.8192735 9.4056129e-05 0
5.4130163 -4.8636904 -0.0018891096 0
5.4106884 -4.8977108 0.0007532835 0
5.4239278 -4.9434733 -0.0014873743 0
5.4354539 -4.9883461 -0.0031690598 0
5.4411302 -5.0291724 -0.0029964447 0
5.4443512 -5.0684266 -0.0020385981 0
5.449152 -5.1091681 -0.0015604496 0
5.4565239 -5.152205 -0.0018699169 0
5.4641781 -5.1958008 -0.0022493601 0
5.4694128 -5.2378278 -0.0018559694 0
5.4749837 -5.2804413 -0.0015506744 0
5.4831657 -5.3254838 -0.0020395517 0
5.4875283 -5.3677902 -0.0013228655 0
5.4977045 -5.4151816 -0.0023921728 0
5.4994907 -5.456039 -0.00084066391 0
5.4948626 -5.4918342 0.0027105808 0
5.5153584 -5.5489821 -0.0014902353 0
5.5266261 -5.5988679 -0.0028123856 0
5.531775 -5.6439567 -0.0022252798 0
5.536952 -5.6894298 -0.0016274452 0
5.5407047 -5.7340274 -0.0005723238 0
5.5507069 -5.784472 -0.0014169216 0
5.5592699 -5.8340902 -0.0017961264 0
5.5662761 -5.88275 -0.0016754866 0
5.5715322 -5.9302464 -0.00099766254 0
5.584877 -5.985508 -0.0027680397 0
5.5874104 -6.031364 -0.001213789 0
5.5895376 -6.0772099 0.00048327446 0
5.6046133 -6.1355247 -0.0017366409 0
5.6120086 -6.1871777 -0.001593709 0
5.6185884 -6.2385178 -0.0011787415 0
5.6285348 -6.2935448 -0.0017586946 0
5.6364055 -6.3470817 -0.0016833544 0
5.6444125 -6.4012456 -0.0016229153 0
5.64885 -6.4523969 -0.00045979023 0
5.6608067 -6.5114665 -0.0015354156 0
5.6684589 -6.5668092 -0.0012862682 0
5.6771364 -6.6237087 -0.001316905 0
5.684453 -6.6797681 -0.00091075897 0
5.6954293 -6.7401195 -0.0015705824 0
5.703392 -6.7979531 -0.0012981892 0
5.7086549 -6.8535233 -0.0001912117 0
5.7207465 -6.9168158 -0.0010886192 0
5.7293072 -6.9770064 -0.00090205669 0
5.740768 -7.0409088 -0.0015436411 0
5.7489882 -7.1019664 -0.0011903048 0
5.7575984 -7.1640625 -0.00091910362 0
5.7703476 -7.2313452 -0.0018360615 0
5.7788491 -7.2946324 -0.001463294 0
5.7886138 -7.3599849 -0.001426816 0
5.7968502 -7.4242954 -0.00090539455 0
5.8083668 -7.49301 -0.0013092756 0
5.8227887 -7.5658073 -0.0025235415 0
5.8284316 -7.6292429 -0.0011311769 0
5.8394756 -7.6996441 -0.0012774467 0
5.8571444 -7.7786298 -0.0033105612 0
5.8618193 -7.84308 -0.0015207529 0
5.8754458 -7.9189391 -0.0022900105 0
5.879952 -7.9846268 -0.00037443638 0
5.8891969 -8.0567894 0.00020992756 0
5.910244 -8.14429 -0.002563715 0
5.9234548 -8.2231293 -0.0030264854 0
5.9317188 -8.296689 -0.0020204782 0
5.9454951 -8.3780451 -0.0025488138 0
5.9580622 -8.4588251 -0.0026800632 0
5.9662051 -8.5348682 -0.0014981031 0
5.9787102 -8.6174479 -0.0015112162 0
5.9954505 -8.7065611 -0.002674222 0
6.0092397 -8.7928839 -0.0029417276 0
6.0169601 -8.8721771 -0.0014368296 0
6.0366869 -8.968544 -0.0032691956 0
6.0456443 -9.0515451 -0.0020037889 0
6.0624242 -9.1462517 -0.0028820038 0
6.0808892 -9.2444992 -0.0041674376 0
6.0872221 -9.3271255 -0.0019929409 0
6.1002445 -9.4201517 -0.0016310215 0
6.1195798 -9.5233173 -0.0029613972 0
6.1307659 -9.6161995 -0.0019569397 0
6.1447949 -9.7143736 -0.0016760826 0
6.1633353 -9.8204088 -0.0025719404 0
6.1743412 -9.9168015 -0.0013157129 0
1.4973637 -5.4077959 1.413227 0
1.4753699 -5.4014382 1.4206724 0
1.4551609 -5.4005322 1.4277774 0
1.4356036 -5.4015794 1.434756 0
1.413452 -5.3937702 1.4421798 0
1.394329 -5.3958712 1.4490612 0
1.3737452 -5.392807 1.4561834 0
1.3546681 -5.3947692 1.4630411 0
1.3357224 -5.3970885 1.4698713 0
1.3167434 -5.399189 1.4767016 0
1.2983432 -5.4033203 1.4834356 0
1.2790039 -5.4038959 1.490312 0
1.2585247 -5.399972 1.4973514 0
1.2394075 -5.4010248 1.5041746 0
1.220215 -5.4016461 1.5110015 0
1.1992165 -5.3948722 1.5180724 0
1.1815144 -5.401154 1.5246742 0
1.161427 -5.3975716 1.5315931 0
1.1418918 -5.396028 1.5384254 0
1.1245481 -5.4037175 1.5449756 0
1.105158 -5.4025316 1.5517759 0
1.0838212 -5.3924046 1.5587873 0
1.0663608 -5.399436 1.5653436 0
1.0467021 -5.3963313 1.5721363 0
1.0291133 -5.4027863 1.5787072 0
1.0101073 -5.4024611 1.5854175 0
0.99235052 -5.4081554 1.5920073 0
0.97071236 -5.3942542 1.5989237 0
0.95216674 -5.3956008 1.6055603 0
0.93430376 -5.4004631 1.6121432 0
0.91545749 -5.4000559 1.6187925 0
0.89670265 -5.3999767 1.625427 0
0.87785125 -5.3991833 1.6320574 0
0.85923684 -5.3995709 1.6386671 0
0.84128916 -5.4038024 1.6452463 0
0.82155401 -5.3971405 1.651876 0
0.80282336 -5.3962831 1.6584603 0
0.78432995 -5.3967528 1.6650316 0
0.76687413 -5.4039812 1.6715968 0
0.7482087 -5.4032054 1.6781623 0
0.72968513 -5.4032254 1.6847203 0
0.71042669 -5.3977661 1.6912456 0
0.69202036 -5.3981767 1.6977829 0
0.67351258 -5.3976774 1.7043074 0
0.65698922 -5.4128137 1.7109652 0
0.63613075 -5.3930902 1.7172945 0
0.61793256 -5.394526 1.7238128 0
0.60119063 -5.4088111 1.7305025 0
0.581258 -5.3947048 1.7368042 0
0.56395537 -5.40447 1.7434508 0
0.54530293 -5.4014559 1.7498921 0
0.52663934 -5.3979192 1.7563095 0
0.50864875 -5.4012218 1.7628542 0
0.49008587 -5.3981915 1.769263 0
0.47155178 -5.3950567 1.7756561 0
0.45415238 -5.4056883 1.7823832 0
0.43567964 -5.403142 1.7887859 0
0.4171271 -5.3990436 1.7951341 0
0.39846924 -5.3927374 1.8014014 0
0.38050184 -5.3964052 1.8079574 0
0.36201259 -5.3916125 1.8142459 0
0.34403211 -5.3952374 1.8208042 0
0.32624808 -5.4031963 1.8275247 0
0.30776119 -5.3973794 1.8337576 0
0.28943139 -5.3939991 1.8400652 0
0.27164429 -5.4039211 1.8468916 0
0.25322247 -5.397594 1.8530744 0
0.23496637 -5.3949389 1.8593947 0
0.21693632 -5.4000502 1.86605 0
0.19880021 -5.4021692 1.8725829 0
0.18056196 -5.3994708 1.8788946 0
0.16238859 -5.3998885 1.8853498 0
0.14414707 -5.3936028 1.8914709 0
0.12599415 -5.3942933 1.8979334 0
0.10783373 -5.3950658 1.904403 0
0.089665085 -5.3955646 1.9108609 0
0.071426697 -5.4049654 1.9178193 0
0.053203993 -5.4056244 1.9243047 0
0.035181023 -5.3925257 1.9299843 0
0.01697395 -5.3942251 1.93652 0
-0.0013409406 -5.399653 1.9432931 0
-0.019681752 -5.4041505 1.9500256 0
-0.037747867 -5.3985829 1.956123 0
-0.056124516 -5.402729 1.9628494 0
-0.07420098 -5.3983021 1.9690114 0
-0.092111625 -5.3907347 1.9749469 0
-0.11067166 -5.3976855 1.9818881 0
-0.12910077 -5.4008346 1.9885798 0
-0.14744371 -5.401793 1.9951239 0
-0.16535652 -5.39534 2.0011196 0
-0.18410778 -5.402422 2.0081356 0
-0.20230126 -5.4003711 2.014466 0
-0.2200478 -5.3922586 2.0203142 0
-0.23902485 -5.4007173 2.0274837 0
-0.25734752 -5.4000936 2.033936 0
-0.27637953 -5.4076076 2.0410745 0
-0.29448116 -5.4038835 2.0472829 0
-0.31210282 -5.3951974 2.0530562 0
-0.33168831 -5.4070368 2.0606217 0
-0.34886369 -5.3941984 2.0660152 0
-0.36876023 -5.4076877 2.0737791 0
-0.38547176 -5.3912339 2.0788152 0
-0.40432534 -5.3944097 2.0856586 0
-0.42346302 -5.3995538 2.0927076 0
-0.44223031 -5.4011583 2.0994365 0
-0.46112272 -5.4034486 2.1062465 0
-0.47941032 -5.4008188 2.1125791 0
-0.49757662 -5.3972726 2.11882 0
-0.51702541 -5.4028864 2.1260045 0
-0.53597903 -5.4045601 2.132803 0
-0.55388641 -5.3989201 2.1388402 0
-0.57229787 -5.3966994 2.1452389 0
-0.59190816 -5.4020286 2.1524651 0
-0.61131078 -5.4056044 2.1595242 0
-0.62794715 -5.3921394 2.1646934 0
-0.64755189 -5.3966002 2.1718712 0
-0.66640043 -5.3963223 2.1785283 0
-0.68500775 -5.3945212 2.1850185 0
-0.7064662 -5.4081874 2.1933446 0
-0.72467476 -5.4036951 2.1995499 0
-0.74367744 -5.4033618 2.2062585 0
-0.76402307 -5.4097037 2.2137992 0
-0.78059089 -5.3967338 2.2189708 0
-0.80101478 -5.4029574 2.2265329 0
-0.82032728 -5.403419 2.2333937 0
-0.84002966 -5.4054999 2.240479 0
-0.85493487 -5.3852901 2.2446749 0
-0.87681156 -5.3970551 2.2530475 0
-0.89463723 -5.3903031 2.2589965 0
-0.91786265 -5.4069867 2.2681093 0
-0.93452072 -5.3949671 2.2733634 0
-0.955055 -5.3993597 2.2808666 0
-0.97168207 -5.3874111 2.2861137 0
-0.99477458 -5.4016881 2.2950509 0
-1.014474 -5.4018736 2.3020339 0
-1.0340503 -5.4013858 2.3089371 0
-1.0544736 -5.4039516 2.3163037 0
-1.0721258 -5.3958492 2.322119 0
-1.0932919 -5.4007788 2.3298748 0
-1.113348 -5.4013324 2.3370037 0
-1.134289 -5.4048324 2.3446033 0
-1.1520398 -5.3968248 2.3504586 0
-1.1732085 -5.4006891 2.3581581 0
-1.1956295 -5.4085021 2.3665123 0
-1.2117629 -5.3948121 2.3714914 0
-1.2305223 -5.3900084 2.3778751 0
-1.2532949 -5.3981986 2.3863735 0
-1.2748727 -5.4021254 2.3942213 0
-1.2907755 -5.3878303 2.3990865 0
-1.3133827 -5.3946052 2.4074512 0
-1.3383521 -5.4082317 2.4170177 0
-1.3572305 -5.4028678 2.4234135 0
-1.3800434 -5.4091792 2.4318261 0
-1.4015759 -5.411355 2.4395642 0
-1.4207269 -5.4063678 2.4460766 0
-1.4401909 -5.4022107 2.4527442 0
-1.4650114 -5.4130754 2.4621105 0
-1.4798729 -5.3957281 2.466444 0
3.4944718 -1.0718582 0.51760018 0
3.4952998 -1.087519 0.51814997 0
3.4955711 -1.1031706 0.51888931 0
3.5037727 -1.1191236 0.51693845 0
3.5075684 -1.1349694 0.51648545 0
3.5077291 -1.1506841 0.5172658 0
3.4950125 -1.1657435 0.52240551 0
3.4996109 -1.1816573 0.52168226 0
3.5007422 -1.1974089 0.52213335 0
3.4965181 -1.2128276 0.52439439 0
3.500375 -1.2287769 0.52392578 0
3.4976182 -1.2442769 0.52569044 0
3.5005691 -1.2602094 0.52553034 0
3.5020864 -1.2760574 0.52585483 0
3.4965723 -1.2913074 0.52854705 0
3.4991088 -1.3072637 0.52852952 0
3.4986317 -1.3229589 0.52952647 0
3.4963539 -1.3384762 0.53112853 0
3.5045986 -1.3551068 0.529199 0
3.4989517 -1.3702778 0.53193235 0
3.5062335 -1.3869091 0.53033137 0
3.4987657 -1.4018404 0.53367317 0
3.4937465 -1.4170226 0.53619289 0
3.4977403 -1.4333441 0.53569758 0
3.4979873 -1.4492129 0.5364567 0
3.5022514 -1.4656595 0.5358758 0
3.4960883 -1.4806596 0.53877616 0
3.5023928 -1.4974728 0.53751838 0
5.1185074 -1.7613145 6.4492226e-05 0
5.1282907 -1.7863778 -0.0019416809 0
5.1288042 -1.8100512 -0.00085866451 0
5.1245999 -1.8329675 0.0017939806 0
5.1359401 -1.8585501 -0.00071597099 0
5.136714 -1.8824008 0.00028753281 0
5.1372652 -1.9062498 0.0013669729 0
5.1415391 -1.9308295 0.0012149811 0
5.1431556 -1.9549749 0.0019468069 0
5.1562142 -1.9814105 -0.0011043549 0
5.1583524 -2.0058148 -0.00053679943 0
5.1657262 -2.0313509 -0.0016958714 0
5.1555648 -2.0533106 0.0029387474 0
5.163403 -2.0790787 0.0016336441 0
5.1705732 -2.1048143 0.00055468082 0
5.1733789 -2.1296804 0.0009188652 0
5.1855392 -2.1567576 -0.001791358 0
5.1775684 -2.1792839 0.0021258593 0
5.1816802 -2.2046626 0.0020714998 0
5.188458 -2.2307751 0.0011465549 0
5.1916857 -2.2561162 0.0013920069 0
5.2030854 -2.2836053 -0.0010368824 0
5.194972 -2.3062167 0.002933383 0
5.2061286 -2.3338654 0.00059592724 0
5.2155361 -2.3612051 -0.0011612177 0
5.2165422 -2.3863962 -0.0001655817 0
5.2191982 -2.4121077 0.00029456615 0
5.2242489 -2.4385753 -2.2053719e-05 0
5.2226052 -2.4632235 0.0018486977 0
5.2339926 -2.4917207 -0.00052237511 0
5.230855 -2.5160701 0.0018423796 0
5.2376528 -2.5434492 0.0009778738 0
5.2447085 -2.5710344 3.6239624e-05 0
5.2434726 -2.5961633 0.0017938614 0
5.2537189 -2.6249814 -0.00017094612 0
5.2521267 -2.6501544 0.0017104149 0
5.2600274 -2.6784797 0.00051963329 0
5.2646866 -2.705874 0.00038576126 0
5.274941 -2.7352679 -0.0015510321 0
5.2746854 -2.7612386 -8.3446503e-05 0
5.277369 -2.7882974 0.00043880939 0
5.2798328 -2.815377 0.00103724 0
5.2865324 -2.8440683 0.00027620792 0
5.2878585 -2.8709531 0.001252532 0
5.2973933 -2.9009449 -0.00040698051 0
5.3006592 -2.9287748 -4.2319298e-05 0
5.3072624 -2.9579771 -0.00074350834 0
5.3077235 -2.9849751 0.00053417683 0
5.3135672 -3.0141482 9.0718269e-05 0
5.3210697 -3.044117 -0.00087690353 0
5.3238816 -3.0723784 -0.00033414364 0
5.3264256 -3.100647 0.00030016899 0
5.3383489 -3.1328645 -0.0020561218 0
5.3357501 -3.1592822 0.00023472309 0
5.3412499 -3.1891587 -5.4001808e-05 0
5.3434939 -3.2178025 0.00070261955 0
5.3513579 -3.2489803 -0.00032377243 0
5.3507047 -3.276629 0.0013685226 0
5.3581204 -3.3079228 0.00050139427 0
5.3672915 -3.3401775 -0.0009137392 0
5.3700128 -3.3697197 -0.00027227402 0
5.3685122 -3.397464 0.001714468 0
5.3789835 -3.4308305 -8.5353851e-05 0
5.3859301 -3.4627659 -0.0007584095 0
5.3883338 -3.4927363 1.4185905e-05 0
5.3871326 -3.521116 0.0019325018 0
5.3940897 -3.5535424 0.0012819767 0
5.4024243 -3.5868325 0.00020706654 0
5.4177084 -3.6237702 -0.0030449629 0
5.4041753 -3.6465652 0.0027844906 0
5.4157734 -3.6820512 0.00071287155 0
5.4224558 -3.7152717 0.00019824505 0
5.4250712 -3.7465839 0.00096988678 0
5.4319973 -3.7803059 0.00039887428 0
5.4417481 -3.8157263 -0.0010459423 0
5.4480782 -3.8495574 -0.0014079809 0
5.4473314 -3.8797679 0.00045263767 0
5.4554858 -3.9149632 -0.00045931339 0
5.4573255 -3.9469028 0.00061047077 0
5.4666333 -3.983165 -0.00063836575 0
5.4783697 -4.0210447 -0.0026301146 0
5.4804783 -4.05372 -0.0016129017 0
5.4787269 -4.0843453 0.00061249733 0
5.4922981 -4.1239996 -0.0019108057 0
5.5051522 -4.1635432 -0.0041954517 0
5.4975963 -4.191287 -0.00014233589 0
5.4969258 -4.2232194 0.0017834902 0
5.4967613 -4.2556052 0.0035609007 0
5.5071211 -4.294579 0.0020971298 0
5.500422 -4.3233123 0.0059101582 0
5.5012679 -4.3568273 0.0074030161 0
5.4908729 -4.3834457 0.012364864 0
5.5026155 -4.4241724 0.010522485 0
5.5042448 -4.4587269 0.011803031 0
5.4961758 -4.4871898 0.016069174 0
5.5011287 -4.5242472 0.01634872 0
5.4909973 -4.5515814 0.02125895 0
5.4932556 -4.5872321 0.022382975 0
5.4971623 -4.6242065 0.023014903 0
5.4975429 -4.659019 0.024735451 0
5.5023503 -4.6970658 0.025117159 0
5.5018878 -4.7317157 0.027116537 0
5.4980469 -4.7641954 0.030153513 0
5.4897289 -4.7936635 0.034558058 0
5.499042 -4.8357816 0.033618569 0
5.5032206 -4.874537 0.034252524 0
5.503005 -4.9103675 0.036230564 0
5.5056939 -4.9485335 0.037341475 0
5.4990411 -4.9800477 0.041286707 0
5.4995675 -5.0170441 0.043073177 0
5.499867 -5.0540977 0.044940472 0
5.5032725 -5.0937386 0.045885324 0
5.4941134 -5.1240273 0.050620437 0
5.5030155 -5.1683865 0.049940467 0
5.4966726 -5.2012086 0.053849339 0
5.5033765 -5.2444544 0.053860307 0
5.5041876 -5.2833557 0.055651188 0
5.4987555 -5.3175125 0.059320092 0
5.505794 -5.3619261 0.059279084 0
5.4978943 -5.3945074 0.06370616 0
5.5068903 -5.4411416 0.063115001 0
5.5046334 -5.4788237 0.065887928 0
5.7370081 -5.713346 -0.00094199181 0
5.7372012 -5.7553115 0.0012226105 0
5.754425 -5.8120918 -0.0016371012 0
5.7526655 -5.8530903 0.001142621 0
5.7713547 -5.9121079 -0.0020980835 0
5.7723427 -5.9562154 -9.0956688e-05 0
5.7805972 -6.0070639 -0.00020503998 0
5.7884102 -6.05796 -0.00016617775 0
5.8020906 -6.1145706 -0.0018254519 0
5.8054633 -6.1623755 -0.00043559074 0
5.8248215 -6.2251825 -0.0037032366 0
5.823988 -6.2700071 -0.0010362864 0
5.8311586 -6.3226109 -0.00068747997 0
5.8356009 -6.373117 0.0004812479 0
5.8540502 -6.4373121 -0.002402544 0
5.8592663 -6.4895329 -0.001406908 0
5.8684287 -6.5460105 -0.0015317202 0
5.8804445 -6.6057868 -0.0024549961 0
5.8842039 -6.6580553 -0.00095951557 0
5.9023986 -6.7250462 -0.0036078691 0
5.9121442 -6.7843194 -0.0037831068 0
5.9092698 -6.8314724 -0.00029611588 0
5.9229355 -6.8957624 -0.0015422106 0
5.9319816 -6.9559841 -0.0014284849 0
5.9414496 -7.0172291 -0.0014041662 0
5.9507074 -7.0788555 -0.0012876987 0
5.9671021 -7.1485834 -0.0031763315 0
5.9685988 -7.2032843 -0.00077962875 0
5.9806247 -7.2697186 -0.0013523102 0
5.9903502 -7.3343635 -0.0012352467 0
6.0071673 -7.4073715 -0.0030937195 0
6.0151548 -7.4715047 -0.002410531 0
6.0225387 -7.5356193 -0.0015224218 0
6.0338192 -7.6047258 -0.0016989708 0
6.048161 -7.6780081 -0.0026978254 0
6.0556726 -7.744348 -0.0017353296 0
6.0691667 -7.8182163 -0.0024137497 0
6.0792394 -7.8889518 -0.0020914078 0
6.0921531 -7.9637547 -0.0025222301 0
6.1013956 -8.0350771 -0.0018852949 0
6.1118264 -8.1085787 -0.0015381575 0
6.12606 -8.1874294 -0.002204299 0
6.1375914 -8.2639265 -0.0020735264 0
6.1454358 -8.3368044 -0.00087690353 0
6.1584806 -8.4168539 -0.0010739565 0
6.1808486 -8.5093575 -0.0037897825 0
6.1874537 -8.5833368 -0.002112031 0
6.2038836 -8.6704998 -0.0030857325 0
6.2173462 -8.7549438 -0.0031917095 0
6.2298989 -8.8392248 -0.0029953718 0
6.2389975 -8.920043 -0.0018048286 0
6.2547674 -9.0104952 -0.0023783445 0
6.2708859 -9.102519 -0.0029876232 0
6.281055 -9.1877899 -0.0019253492 0
6.2973771 -9.2823181 -0.002471447 0
6.3148742 -9.3796177 -0.0032705069 0
6.32585 -9.4692745 -0.0022506714 0
6.3415408 -9.5665131 -0.0024366379 0
6.3487182 -9.6531878 -0.00027906895 0
6.3753963 -9.7681999 -0.0032697916 0
6.3882723 -9.8652916 -0.0025031567 0
6.4020886 -9.9649687 -0.0019202232 0
1.4824115 -5.4061885 1.4345553 0
1.4601326 -5.3989177 1.4417713 0
1.4385469 -5.3935356 1.4488511 0
1.4220291 -5.4047608 1.4550841 0
1.4001707 -5.3980231 1.4621849 0
1.3779193 -5.3895473 1.4693274 0
1.3610424 -5.3994479 1.4756126 0
1.3431832 -5.4059954 1.4820548 0
1.3236156 -5.406405 1.4887538 0
1.3043979 -5.4079409 1.4953932 0
1.2823036 -5.3986111 1.5024366 0
1.2651409 -5.4075217 1.5087669 0
1.2409073 -5.3892574 1.5160655 0
1.2227191 -5.3939409 1.5225209 0
1.2049139 -5.4001527 1.5289268 0
1.1868364 -5.4053063 1.5353694 0
1.1651185 -5.3953934 1.5422535 0
1.1485313 -5.4065971 1.548509 0
1.1267002 -5.3955092 1.5553694 0
1.107608 -5.3958287 1.5619013 0
1.0893267 -5.3996158 1.5683408 0
1.06981 -5.397759 1.5749019 0
1.0514199 -5.4008942 1.5813439 0
1.0315326 -5.3968964 1.5879177 0
1.0141307 -5.4045954 1.594265 0
0.99352485 -5.3966198 1.6008726 0
0.97657555 -5.4065976 1.6071867 0
0.95570028 -5.3965907 1.6137781 0
0.9368273 -5.3965359 1.6202154 0
0.91897273 -5.4018149 1.6265886 0
0.89942849 -5.3978424 1.6330466 0
0.88138819 -5.4020286 1.6394252 0
0.86202735 -5.398602 1.6458497 0
0.84363902 -5.4006281 1.6522321 0
0.82490504 -5.4004869 1.6586174 0
0.8053956 -5.3953218 1.6650002 0
0.78608406 -5.3909898 1.6713598 0
0.7693823 -5.4035163 1.6777247 0
0.74914843 -5.3925762 1.6840478 0
0.73266208 -5.4070802 1.6904445 0
0.71368736 -5.4043508 1.6967742 0
0.6946795 -5.4010487 1.7030849 0
0.67642093 -5.4031343 1.7094263 0
0.6585412 -5.4082165 1.7157975 0
0.63893449 -5.3993087 1.7220145 0
0.62074351 -5.4016523 1.7283466 0
0.60235226 -5.4022503 1.7346542 0
0.58354461 -5.398932 1.7408956 0
0.56596136 -5.4068556 1.7473168 0
0.54821682 -5.4136868 1.7537349 0
0.52931666 -5.4090056 1.7599356 0
0.51031804 -5.4026914 1.766083 0
0.49107727 -5.392899 1.7721282 0
0.47364253 -5.4034405 1.7786378 0
