# .PCD v0.7 - Point Cloud Data file format
VERSION 0.7
FIELDS x y z rgb
SIZE 4 4 4 4
TYPE F F F F
COUNT 1 1 1 1
WIDTH 1384
HEIGHT 1
VIEWPOINT 0 0 0 1 0 0 0
POINTS 1384
DATA ascii
0.27096304 -0.29480147 1.2934954 0
0.28279981 -0.29637957 1.2947841 0
0.29362759 -0.29517102 1.2932985 0
0.30123743 -0.29449773 1.2944432 0
0.31048688 -0.29628587 1.2958089 0
0.32184586 -0.29359436 1.2962873 0
0.33053789 -0.2917459 1.2927436 0
0.22601755 -0.29068637 1.2980864 0
0.23048504 -0.28419518 1.2944307 0
0.23997934 -0.28888226 1.294197 0
0.25442275 -0.28616118 1.2928057 0
0.26303205 -0.28735757 1.2954073 0
0.27256402 -0.28712821 1.2907898 0
0.28174481 -0.28811622 1.2960435 0
0.29235968 -0.28832483 1.2971095 0
0.30180249 -0.28638005 1.2960974 0
0.31135902 -0.28529024 1.2954438 0
0.3219665 -0.29057407 1.2990824 0
0.33837685 -0.28939939 1.2906618 0
0.22750385 -0.27207708 1.2950923 0
0.26938614 -0.28003263 1.290746 0
0.27779946 -0.27847338 1.2964571 0
0.23323305 -0.26684499 1.2935874 0
0.22978576 -0.25608087 1.2948515 0
0.22686465 -0.24938202 1.2954783 0
0.23263676 -0.23720527 1.2936299 0
0.22503765 -0.2239337 1.2975531 0
0.23050745 -0.2274282 1.2932965 0
0.23418553 -0.21273685 1.2952092 0
0.22894318 -0.20663381 1.2948816 0
-0.50855321 -0.19469476 1.2924384 0
0.22515281 -0.19527006 1.2965353 0
-0.50916892 -0.18394017 1.2942233 0
-0.49706569 -0.18990254 1.2939153 0
0.22478779 -0.18318987 1.2969391 0
0.23230965 -0.1876471 1.2942579 0
-0.52546173 -0.17861581 1.2931325 0
-0.51995903 -0.17747808 1.2960498 0
-0.50760788 -0.17750025 1.2940501 0
-0.50024849 -0.17748284 1.2932825 0
-0.49101463 -0.18022227 1.2904119 0
0.23403294 -0.17835188 1.2945457 0
-0.52334207 -0.16262627 1.2967329 0
-0.51553589 -0.17037868 1.2956382 0
-0.51009029 -0.16498756 1.294625 0
-0.50160664 -0.16175723 1.2995034 0
0.22414978 -0.16323829 1.2970815 0
0.23156174 -0.16542602 1.2942135 0
-0.52139837 -0.15390658 1.2970829 0
-0.51050013 -0.15627718 1.2980008 0
0.22607692 -0.15599942 1.2946093 0
0.23131402 -0.15888405 1.2933688 0
0.22425492 -0.14750385 1.2964547 0
0.2343591 -0.149966 1.2980902 0
-0.5251928 -0.13861227 1.2983941 0
0.22298057 -0.13803792 1.2980809 0
0.23321469 -0.13758302 1.2947621 0
0.22590668 -0.12634444 1.2942269 0
0.2300175 -0.12898946 1.2915404 0
0.22449596 -0.11475253 1.2951164 0
0.23542197 -0.11501622 1.2960956 0
0.22388156 -0.10141635 1.2956387 0
0.23323663 -0.10636115 1.2940757 0
0.22413929 -0.083387613 1.2947148 0
0.23427351 -0.08807826 1.2971028 0
0.22218116 -0.076179981 1.2974325 0
0.22737391 -0.071383715 1.2911402 0
0.23474415 -0.069504261 1.2961646 0
-0.5130592 -0.056569338 1.2995278 0
0.2240053 -0.055968285 1.2969035 0
0.23113878 -0.053144693 1.2932191 0
-0.52029258 -0.041731119 1.2998263 0
0.23201998 -0.047694921 1.2993008 0
-0.51837391 -0.031564951 1.2959516 0
-0.50792116 -0.035632372 1.2943194 0
0.22743614 -0.03673625 1.2903451 0
-0.52356416 -0.029283762 1.2938199 0
-0.5194909 -0.028316736 1.2990565 0
-0.50778502 -0.027914286 1.2938094 0
0.22595413 -0.023657322 1.2911907 0
-0.50890988 -0.01550889 1.2973075 0
-0.50224572 -0.016668081 1.295734 0
0.22305734 -0.015371084 1.2971563 0
0.23468883 -0.017763853 1.2953181 0
-0.51440829 -0.0074045658 1.2906115 0
-0.51318318 -0.0092027187 1.2912309 0
-0.500817 -0.008358717 1.2944057 0
-0.49302176 -0.0075311661 1.2915723 0
-0.50914961 0.0042693615 1.2932364 0
-0.49763218 0.0049169064 1.2921246 0
0.23614986 0.0072925091 1.2929837 0
0.22397526 0.010479212 1.2981747 0
0.23297985 0.010965586 1.2970185 0
0.22316678 0.033102751 1.2958505 0
0.23385747 0.034234047 1.2954706 0
0.23355897 0.044098139 1.2987587 0
0.22413237 0.050421953 1.2971822 0
0.23368509 0.052982092 1.2953608 0
0.23385747 0.06414628 1.2983258 0
0.22435983 0.071976423 1.2964575 0
0.23408635 0.075080156 1.2944498 0
0.2238365 0.086597204 1.2900966 0
0.23383386 0.084920168 1.2978234 0
0.22410472 0.091607809 1.2964097 0
0.23444612 0.097572565 1.2935855 0
0.24164064 0.093216181 1.2997824 0
0.22341831 0.10591912 1.2901464 0
0.23314674 0.10257649 1.2983508 0
0.22498496 0.11780667 1.2947298 0
0.23431809 0.12455487 1.2947197 0
0.22471483 0.13857007 1.2946794 0
0.23353656 0.14332867 1.2953382 0
0.22429211 0.15909505 1.2948358 0
0.23363359 0.1501019 1.2964271 0
0.2344981 0.17855239 1.2944559 0
0.22526677 0.1879847 1.2929778 0
0.24138077 0.18145275 1.2980458 0
0.23249944 0.19125152 1.2971117 0
0.2246836 0.20895123 1.2933377 0
0.23121293 0.20871282 1.2985916 0
0.24141105 0.20569897 1.2974268 0
0.23476537 0.21188664 1.2911439 0
0.23418839 0.22576928 1.29368 0
0.24007757 0.22264123 1.2988786 0
0.23053987 0.22973442 1.2990886 0
0.23983581 0.24662328 1.2986442 0
0.23261698 0.2547605 1.2954807 0
0.22563775 0.26517606 1.2909704 0
0.23477109 0.28151822 1.2914071 0
0.24197538 0.28585792 1.2947357 0
0.23279794 0.29554439 1.2944214 0
0.24102362 0.30721426 1.2955517 0
0.22513969 0.31624722 1.290626 0
0.23035629 0.31295657 1.2960687 0
0.22753246 0.32957077 1.2976183 0
0.22483738 0.34269214 1.2905066 0
0.2311302 0.34013438 1.2964084 0
0.23991258 0.34370303 1.2960112 0
0.22693117 0.35510588 1.2978091 0
0.22392614 0.36619925 1.2912508 0
0.23922451 0.36854959 1.2963834 0
0.23157819 0.37183642 1.2952811 0
0.22765429 0.39060855 1.2958332 0
0.24115188 0.3949635 1.2932869 0
0.23210867 0.40511298 1.2940211 0
0.22671135 0.41571069 1.2965264 0
0.23871978 0.41041732 1.2964557 0
0.23162039 0.43309569 1.29416 0
0.23959835 0.43173575 1.2946503 0
0.24110802 0.45766234 1.2918569 0
0.22843297 0.46069455 1.2928654 0
0.23741038 0.46534967 1.2971942 0
0.23276241 0.47253084 1.2920078 0
0.2279578 0.49138093 1.2927384 0
0.23727138 0.49757504 1.2968384 0
0.23281653 0.50624299 1.2913512 0
0.22782047 0.52570105 1.2920308 0
0.23748715 0.53328347 1.2959806 0
0.23121794 0.54102945 1.2947044 0
0.22730263 0.55844283 1.2919116 0
0.2307082 0.57363391 1.2947941 0
0.23855813 0.57603097 1.2939336 0
0.22633965 0.59669948 1.2988064 0
0.22713192 0.59512162 1.2911894 0
0.22870143 0.60897279 1.2986828 0
0.23705848 0.60283208 1.2953736 0
0.23885281 0.63458037 1.2983435 0
0.2273782 0.64496732 1.2960914 0
0.23814471 0.64864421 1.2932575 0
0.2298394 0.6562798 1.2964338 0
0.22636326 0.678581 1.2966703 0
0.23843463 0.67177367 1.2980883 0
0.23741372 0.68333268 1.2936035 0
0.22935899 0.69360614 1.296415 0
0.25077376 -0.30155754 1.3028545 0
0.2731398 -0.30092311 1.3065522 0
0.28288469 -0.30178833 1.3088679 0
0.31784853 -0.30128455 1.3066061 0
0.22307046 -0.29841447 1.3046091 0
0.23545535 -0.29706836 1.303834 0
0.24381764 -0.29606962 1.3048632 0
0.24995477 -0.29399943 1.3044052 0
0.26162872 -0.29680324 1.304006 0
0.27111086 -0.29625511 1.304566 0
0.28373417 -0.29678369 1.3059969 0
0.29163274 -0.29295707 1.3052211 0
0.30160221 -0.29514074 1.3055265 0
0.31342563 -0.29358196 1.3085389 0
0.32177147 -0.29374909 1.3051965 0
0.33131012 -0.29416108 1.3030808 0
0.33748946 -0.29391432 1.3085073 0
0.2236944 -0.28148007 1.3042831 0
0.23489626 -0.28602481 1.3046048 0
0.24129207 -0.28705096 1.3040553 0
0.24710353 -0.28975892 1.3064351 0
0.26073536 -0.28605723 1.3055563 0
0.27138337 -0.28779817 1.3065164 0
0.28283772 -0.28901315 1.3059047 0
0.29357085 -0.28690839 1.3044894 0
0.2988151 -0.28804374 1.3042252 0
0.31117806 -0.28701758 1.3045802 0
0.32068738 -0.28604579 1.3058224 0
0.33038267 -0.28776574 1.306895 0
0.22250254 -0.27704549 1.3043301 0
0.23167928 -0.27920818 1.3068573 0
0.23698051 -0.27451968 1.309907 0
0.22318394 -0.26497769 1.3015633 0
0.23205025 -0.26409125 1.30442 0
0.24058755 -0.26973319 1.3098772 0
0.22359736 -0.25368237 1.3023359 0
0.23236211 -0.25533772 1.307415 0
0.22247942 -0.24500203 1.3035822 0
0.23398693 -0.2479434 1.3003101 0
0.33209953 -0.24214435 1.3097527 0
0.22303088 -0.23281646 1.3042052 0
0.23243053 -0.23813272 1.3050447 0
0.23720105 -0.23556256 1.3089895 0
0.31680736 -0.23251939 1.3086333 0
0.23013885 -0.22871304 1.3075897 0
0.24213846 -0.2245338 1.3066454 0
0.22289665 -0.21987367 1.3041285 0
0.23299678 -0.2164073 1.3063546 0
0.22326811 -0.20456767 1.3033361 0
0.23489769 -0.20252109 1.3037223 0
0.2407933 -0.20279431 1.3079994 0
0.22188456 -0.19624209 1.3050038 0
0.23658688 -0.19737911 1.3091314 0
0.23247106 -0.18700147 1.3057379 0
0.24143441 -0.18595195 1.3067075 0
-0.51884729 -0.17430902 1.3011923 0
-0.50842589 -0.17641997 1.3022195 0
0.22213323 -0.1808517 1.3043723 0
0.22916158 -0.17702293 1.3079429 0
0.23934205 -0.17222428 1.3052616 0
-0.53026527 -0.16154981 1.3067486 0
-0.52048451 -0.16398787 1.3035241 0
-0.50798231 -0.16719842 1.3037186 0
0.22293074 -0.16275644 1.3029613 0
0.23415215 -0.16241479 1.3037533 0
0.2394274 -0.16556096 1.3090131 0
-0.53424472 -0.15768218 1.3029711 0
-0.53264827 -0.15128875 1.3059793 0
-0.51924723 -0.15666938 1.3043146 0
-0.50992602 -0.15424061 1.3042738 0
0.22200115 -0.15172935 1.303975 0
0.23085029 -0.15529847 1.3053982 0
0.31592807 -0.15874457 1.3089802 0
-0.53876787 -0.14113545 1.3028618 0
-0.53212708 -0.14617562 1.3092968 0
-0.52024215 -0.14786172 1.3089216 0
-0.51263577 -0.14595556 1.3013716 0
0.23221739 -0.14499784 1.304657 0
0.2388006 -0.14901471 1.3074554 0
-0.52987391 -0.13591504 1.3095773 0
-0.5186246 -0.13696647 1.3091611 0
0.22099955 -0.14077735 1.3050855 0
0.23133142 -0.13341689 1.3055544 0
0.23862417 -0.13450146 1.3073826 0
0.22985204 -0.12477994 1.3076091 0
0.23693116 -0.12217402 1.3074623 0
-0.52202982 -0.11789346 1.3076723 0
-0.51317757 -0.1197145 1.3092098 0
0.22286637 -0.11679339 1.3021433 0
0.2291971 -0.11615777 1.306837 0
0.24040373 -0.11506104 1.306455 0
-0.52207881 -0.10683703 1.3089148 0
0.23182566 -0.11086822 1.3057507 0
0.2373596 -0.10453534 1.3066348 0
-0.52318007 -0.092989683 1.3093332 0
0.22390397 -0.095955849 1.3003604 0
0.22911055 -0.10045981 1.3066747 0
0.24051555 -0.098406792 1.3059033 0
-0.52731091 -0.088922739 1.3009807 0
0.23365004 -0.08563447 1.3024895 0
0.23880966 -0.085716009 1.3061366 0
-0.52719921 -0.074436426 1.3029971 0
-0.5158034 -0.07723546 1.3035059 0
0.22379072 -0.079869032 1.3001943 0
0.23348005 -0.076724291 1.3058847 0
-0.5297547 -0.061276913 1.3024459 0
-0.51645368 -0.062879801 1.3051472 0
0.23292263 -0.065556765 1.3052717 0
0.23947389 -0.069906473 1.306674 0
-0.52636129 -0.056757689 1.3055171 0
-0.51691741 -0.057698488 1.307004 0
0.22207125 -0.053535223 1.3019532 0
0.23283918 -0.055280924 1.302866 0
-0.52835804 -0.047361612 1.3056165 0
-0.51057142 -0.045176506 1.3034679 0
0.2333246 -0.043122768 1.3055147 0
0.24151118 -0.042767763 1.303196 0
0.31416687 -0.047861338 1.3099952 0
0.32530603 -0.043346643 1.3099141 0
0.33077273 -0.046471834 1.3070002 0
-0.52589375 -0.034128189 1.308508 0
-0.51716059 -0.038583517 1.3058484 0
-0.50692517 -0.035883904 1.3042331 0
0.22238262 -0.034291983 1.3011628 0
0.23164327 -0.03617835 1.3062426 0
-0.5175181 -0.026355743 1.3055549 0
0.23112662 -0.02273035 1.302734 0
0.24164899 -0.024229288 1.3025633 0
-0.51852661 -0.018657446 1.3008841 0
-0.50972301 -0.016029596 1.3014351 0
-0.49937156 -0.014159918 1.3006535 0
0.23022135 -0.01951766 1.3043332 0
0.23936374 -0.017272234 1.3055758 0
0.2311321 -0.0064442158 1.3057736 0
0.23143442 0.0043087006 1.3024988 0
0.23577721 0.010151148 1.3067324 0
0.2416869 0.013091326 1.3016233 0
0.23203786 0.022104979 1.3043768 0
0.24092443 0.02848506 1.3023176 0
0.23180397 0.044671774 1.305361 0
0.24090965 0.048164606 1.30187 0
0.23068698 0.051233053 1.3020097 0
0.22807844 0.061827183 1.3038965 0
0.22957475 0.07799387 1.3023177 0
0.23933537 0.073839426 1.3021851 0
0.22702415 0.085189581 1.3096714 0
0.2310489 0.094202757 1.3007971 0
0.23680861 0.095112324 1.3040411 0
0.22841819 0.10410309 1.3032461 0
0.24045499 0.10825443 1.3010736 0
0.22759898 0.10974336 1.3085243 0
0.22715242 0.12578034 1.3061726 0
0.23863705 0.12311578 1.302238 0
0.22489436 0.13155675 1.3066339 0
0.23857649 0.14767575 1.3009585 0
0.31316242 0.14648557 1.3094361 0
0.22896273 0.1556828 1.3041979 0
0.24038179 0.15247083 1.3001238 0
0.23776229 0.1661942 1.3016753 0
0.22663148 0.17307782 1.308686 0
0.22757204 0.17102361 1.301744 0
0.23766263 0.18905091 1.301424 0
0.22754844 0.19532466 1.3011369 0
0.23183067 0.20352149 1.3050692 0
0.22673424 0.21549201 1.3017755 0
0.22784074 0.22899079 1.3062007 0
0.23746069 0.23680425 1.3008918 0
0.22711952 0.24382281 1.300474 0
0.23748334 0.240556 1.3090029 0
0.23183449 0.25393128 1.3042271 0
0.22649319 0.26659799 1.3007739 0
0.2384723 0.27299142 1.3069237 0
0.33144388 0.27060699 1.3092831 0
0.22830255 0.28410196 1.3046813 0
0.23719271 0.28714204 1.3003995 0
0.23787077 0.29658484 1.3072228 0
0.33082113 0.2911613 1.309886 0
0.22427042 0.31155753 1.3090677 0
0.22925122 0.31726718 1.3029125 0
0.23684223 0.31224775 1.300426 0
0.33978161 0.31164145 1.3090069 0
0.34472999 0.32465363 1.3087335 0
0.24427636 0.33156705 1.3096694 0
0.33885512 0.33175731 1.3098953 0
0.22444017 0.3422935 1.3080375 0
0.22846349 0.3410151 1.3035145 0
0.23737438 0.3506546 1.306699 0
0.23517568 0.36894059 1.3086035 0
0.33100829 0.36540532 1.309677 0
0.34358963 0.36884665 1.3098729 0
0.22476299 0.37516189 1.3067349 0
0.22873266 0.37205958 1.3026471 0
0.24576195 0.37005877 1.3068943 0
0.2407809 0.38546443 1.3072991 0
0.23462279 0.39570212 1.3088975 0
0.22482069 0.40734124 1.3058262 0
0.22875722 0.40262771 1.3020991 0
0.2406586 0.41573238 1.3068228 0
0.33096156 0.41766953 1.3097044 0
0.23200376 0.4324019 1.3045942 0
0.22479494 0.4400866 1.3050221 0
0.23795278 0.44787669 1.3037388 0
0.23231681 0.4582479 1.3080795 0
0.24448331 0.45545554 1.3068614 0
0.23231824 0.46685171 1.3036586 0
0.22455414 0.47246671 1.3045332 0
0.33111081 0.47396445 1.3095391 0
0.23095925 0.48284936 1.3094063 0
0.24122985 0.48515439 1.3045638 0
0.33809075 0.48878551 1.3099989 0
0.22821744 0.49683785 1.3011943 0
0.2368203 0.50663304 1.3045592 0
0.22553046 0.51514983 1.30205 0
0.23822887 0.51785016 1.301801 0
0.2322603 0.52774167 1.3065988 0
0.244819 0.52576947 1.3049752 0
0.23525055 0.53111482 1.306145 0
0.22502454 0.54820418 1.3019198 0
0.24281581 0.54752707 1.3072124 0
0.23136409 0.55801988 1.3071599 0
0.23857792 0.55632305 1.3004644 0
0.23591764 0.57154012 1.3047296 0
0.24137957 0.59399819 1.3020428 0
0.23407443 0.60591578 1.3045614 0
0.23399098 0.64461994 1.3039657 0
0.24596961 0.64618874 1.300975 0
0.24400742 0.64947963 1.3095776 0
0.2443393 0.67436957 1.3025813 0
0.2358733 0.68777871 1.3030885 0
0.23295672 0.69004989 1.3019949 0
0.25227317 -0.30469632 1.3127379 0
0.29587778 -0.30112505 1.3124897 0
0.30187759 -0.30399036 1.3197252 0
0.23115285 -0.29640079 1.3139486 0
0.24088486 -0.29541898 1.3149757 0
0.25185832 -0.29528403 1.3160361 0
0.26177177 -0.29498553 1.3146871 0
0.2724224 -0.29407454 1.3151771 0
0.28114757 -0.295223 1.3146738 0
0.29117426 -0.29470325 1.3148949 0
0.30247959 -0.29592633 1.3136249 0
0.31131062 -0.29377651 1.3143998 0
0.32339033 -0.2926271 1.3136948 0
0.22599037 -0.28854632 1.3167462 0
0.23126872 -0.28736281 1.3129387 0
0.24076207 -0.2868619 1.3167644 0
0.25241885 -0.287256 1.3139925 0
0.26282033 -0.28785396 1.3162889 0
0.27280316 -0.28556132 1.3157341 0
0.2811099 -0.28798795 1.3141463 0
0.29145822 -0.28641057 1.3160324 0
0.2996932 -0.28604507 1.315815 0
0.31186041 -0.28777575 1.3131837 0
0.3226715 -0.28501654 1.3136774 0
0.33549508 -0.28874683 1.3106107 0
0.22468002 -0.27998281 1.3177985 0
0.23370679 -0.27426124 1.3140088 0
0.28943548 -0.27751899 1.3158548 0
0.30149207 -0.2750845 1.3188708 0
0.31124434 -0.27764225 1.3144833 0
0.32240614 -0.27436423 1.3149521 0
0.33327875 -0.27863407 1.3129238 0
0.22502334 -0.26857495 1.3181984 0
0.27555284 -0.26118302 1.3197401 0
0.2845746 -0.26237845 1.3197585 0
0.29193053 -0.26473904 1.3177478 0
0.30269799 -0.26375198 1.3162953 0
0.31192335 -0.26445293 1.3126285 0
0.31894597 -0.26542568 1.3137993 0
0.33325347 -0.26186538 1.3128593 0
0.22426398 -0.25719929 1.3183495 0
0.23152073 -0.25504994 1.3122702 0
0.23903807 -0.2569077 1.3117269 0
0.2750226 -0.25816989 1.3179203 0
0.28041896 -0.25357938 1.3199153 0
0.29124245 -0.25210214 1.3174782 0
0.30442247 -0.25191474 1.3179109 0
0.31307492 -0.25823045 1.3146474 0
0.32229075 -0.25443983 1.3134873 0
0.32732138 -0.25612783 1.3105819 0
0.22484405 -0.24330354 1.3179996 0
0.29271802 -0.24522328 1.3183312 0
0.30568704 -0.24946332 1.3173532 0
0.31149301 -0.24339414 1.3136561 0
0.31861648 -0.24368095 1.3181809 0
0.22555406 -0.23682904 1.3154038 0
0.23381694 -0.23538327 1.3132313 0
0.27662119 -0.23295951 1.3183684 0
0.28508505 -0.23636556 1.319057 0
0.29137525 -0.23704386 1.3169738 0
0.30370006 -0.23818684 1.3159686 0
0.31308421 -0.23699927 1.3124671 0
0.32484564 -0.23696375 1.3118415 0
0.33023843 -0.23589134 1.3116746 0
0.22590931 -0.22563815 1.3163443 0
0.23888858 -0.22454309 1.3111651 0
0.27635249 -0.22113681 1.3185806 0
0.29262313 -0.22700644 1.3180234 0
0.30539426 -0.22390914 1.3161502 0
0.31410727 -0.22710824 1.3133039 0
0.32282004 -0.22637773 1.3127677 0
0.33449253 -0.22304797 1.3113234 0
0.22564323 -0.2177279 1.3156271 0
0.22772248 -0.21117902 1.3103843 0
0.2899898 -0.215312 1.317715 0
0.30389938 -0.21672773 1.3181789 0
0.31141219 -0.21929765 1.3149122 0
0.32363686 -0.21748638 1.3133838 0
0.33206758 -0.21834064 1.3138893 0
0.22651155 -0.20474958 1.3131812 0
0.28977022 -0.2068584 1.3187425 0
0.30138144 -0.2063427 1.3171086 0
0.31288895 -0.20443702 1.3147216 0
0.32201418 -0.20568061 1.3143004 0
0.23280056 -0.19536519 1.3197761 0
0.27505025 -0.19943595 1.319859 0
0.28141627 -0.1987083 1.3179948 0
0.29192385 -0.19490552 1.3174102 0
0.30162892 -0.19252872 1.3167187 0
0.31126747 -0.19293785 1.3148035 0
0.3219963 -0.19888592 1.3136013 0
0.33389243 -0.2003758 1.3118411 0
0.22631986 -0.18642974 1.3140681 0
0.23247774 -0.18882155 1.3161993 0
0.23874195 -0.18319416 1.3103857 0
0.27535543 -0.18490005 1.3194219 0
0.29009923 -0.18588495 1.318185 0
0.30422792 -0.1840775 1.3178122 0
0.32209191 -0.18639684 1.3141799 0
0.33326778 -0.18974662 1.3124506 0
0.22543867 -0.17548633 1.3149817 0
0.2343417 -0.17637181 1.3145934 0
0.29141697 -0.17496037 1.318112 0
0.30060038 -0.17659855 1.3193426 0
0.31396922 -0.17636871 1.3141246 0
0.3207694 -0.17299056 1.3149183 0
0.33030638 -0.17365956 1.3127868 0
0.22489293 -0.16796803 1.3145373 0
0.27562293 -0.17018867 1.3190247 0
0.28291568 -0.16552496 1.3185239 0
0.30020055 -0.16522574 1.3189545 0
0.31101093 -0.16714692 1.3153487 0
-0.52668959 -0.15379524 1.313794 0
-0.5171482 -0.15561318 1.3119053 0
-0.50879246 -0.15159345 1.3100536 0
0.22613604 -0.15274191 1.3148236 0
0.29335198 -0.15358901 1.3179996 0
0.30129489 -0.15856743 1.3159682 0
0.31196365 -0.15826392 1.3133959 0
0.32261214 -0.15840602 1.3134902 0
0.33182892 -0.15525746 1.3138001 0
-0.54498523 -0.14280057 1.310505 0
-0.52593392 -0.14503741 1.3159673 0
-0.51766974 -0.14598656 1.3139951 0
-0.50849348 -0.14166665 1.3114693 0
0.22513159 -0.14651465 1.3148015 0
0.23423488 -0.14536309 1.3172715 0
0.26427278 -0.14547276 1.3191409 0
0.29043636 -0.14364028 1.3178695 0
0.30493459 -0.14759517 1.3168067 0
0.31281218 -0.1447022 1.3142481 0
0.32296953 -0.14371109 1.3130698 0
-0.54044551 -0.13728547 1.3134971 0
-0.52973646 -0.13442636 1.3125637 0
-0.52006179 -0.13553548 1.313364 0
0.23475488 -0.13249993 1.3186687 0
0.29045615 -0.13757968 1.3181883 0
0.30267939 -0.13519645 1.3176851 0
0.3127645 -0.13223863 1.315178 0
0.32308373 -0.13253999 1.313839 0
0.3324419 -0.13972616 1.3130603 0
-0.52872974 -0.12470937 1.3147026 0
-0.51940197 -0.12658858 1.3135955 0
0.2253228 -0.12512732 1.3153927 0
0.28639707 -0.12452483 1.3196466 0
0.28940305 -0.12512732 1.3184445 0
0.30339608 -0.1235373 1.3178871 0
0.31344256 -0.12571096 1.3114842 0
0.32285413 -0.12624288 1.3126695 0
-0.54357666 -0.1139586 1.3152096 0
-0.51968914 -0.11623311 1.3123283 0
-0.51150328 -0.11271071 1.3116839 0
0.22517188 -0.11433673 1.3139743 0
0.23305996 -0.11917043 1.3183434 0
0.29551992 -0.11853385 1.3159968 0
0.3057774 -0.11824656 1.3169129 0
0.31289753 -0.11612034 1.3139768 0
0.32155284 -0.1153605 1.3137367 0
0.33344206 -0.11554313 1.3118597 0
-0.52901405 -0.1077888 1.3151455 0
-0.52030748 -0.10617852 1.3150445 0
-0.51170915 -0.10105538 1.3127847 0
0.29484352 -0.10813737 1.3178411 0
0.30522642 -0.10352993 1.316277 0
0.31077537 -0.10568213 1.3145068 0
0.32207188 -0.10538483 1.3136668 0
-0.53090221 -0.095364809 1.3145428 0
-0.52057892 -0.091164827 1.3135697 0
0.22671302 -0.09530282 1.3100044 0
0.23576243 -0.091311693 1.3145924 0
0.2851859 -0.09793973 1.3199894 0
0.29263029 -0.097895622 1.3184478 0
0.30350932 -0.093843699 1.3174047 0
0.31254897 -0.097010374 1.3150743 0
0.32435474 -0.096189737 1.3128903 0
0.33287963 -0.095971346 1.3123538 0
-0.53050977 -0.085240602 1.3151376 0
-0.52123696 -0.088756561 1.3132873 0
-0.51200265 -0.089012861 1.3138403 0
0.22422011 -0.090664625 1.3134654 0
0.23501761 -0.082485676 1.3174181 0
0.24310453 -0.089721918 1.3198454 0
0.27171835 -0.088786364 1.3195448 0
0.28347215 -0.089125872 1.3199186 0
0.29194722 -0.08356595 1.3184254 0
0.3037723 -0.084941149 1.3170373 0
0.31179532 -0.087471724 1.313185 0
0.32229123 -0.085432291 1.3135986 0
0.33156571 -0.085824251 1.3137028 0
-0.53166884 -0.079526663 1.3163559 0
-0.52230591 -0.073963881 1.3131077 0
-0.51272744 -0.075722456 1.3146009 0
0.22558601 -0.074415684 1.3142004 0
0.2282799 -0.079194784 1.31085 0
0.28582796 -0.079700708 1.3190134 0
0.29390559 -0.079000711 1.3174543 0
0.3032268 -0.079099417 1.3176676 0
0.31027707 -0.080006838 1.3161659 0
-0.52989274 -0.065798759 1.3148137 0
-0.52158207 -0.065179586 1.3155903 0
0.22603209 -0.06420207 1.3101628 0
0.23282726 -0.070698023 1.3179241 0
0.24369009 -0.070068121 1.3186598 0
0.27851447 -0.061659098 1.3197069 0
0.29219589 -0.061729193 1.3191786 0
0.30339131 -0.06359458 1.3174326 0
0.31093225 -0.068853617 1.314715 0
0.32129416 -0.065765619 1.3137147 0
0.33327731 -0.064903498 1.3117595 0
-0.53051406 -0.057080984 1.3191009 0
-0.51903087 -0.057336092 1.3140955 0
0.22597964 -0.055243015 1.313375 0
0.24030764 -0.056800604 1.3173766 0
0.29615435 -0.054248095 1.3145707 0
0.30224428 -0.056708574 1.3185432 0
0.31090912 -0.06001687 1.314265 0
0.32126459 -0.053188086 1.3155274 0
0.33127198 -0.056675673 1.3138578 0
-0.52826887 -0.049911261 1.3162663 0
-0.52241832 -0.048878431 1.3153371 0
0.22336729 -0.041829348 1.3194245 0
0.23514827 -0.042865515 1.3146456 0
0.24230321 -0.041586161 1.3199346 0
0.2935718 -0.048216581 1.3175139 0
0.31097969 -0.045137882 1.3145568 0
0.32040581 -0.047523022 1.316277 0
-0.52725095 -0.037428141 1.3147204 0
-0.5175578 -0.039986372 1.313741 0
0.22533615 -0.040453196 1.3139445 0
0.23358281 -0.032162428 1.316427 0
0.3024784 -0.033927202 1.318099 0
0.30868682 -0.031492472 1.3137076 0
0.32016048 -0.034488916 1.3148764 0
0.33144626 -0.04048562 1.3135833 0
-0.51418775 -0.025178671 1.3101835 0
0.23171122 -0.02263236 1.318604 0
0.23841269 -0.026802301 1.3136864 0
0.29059967 -0.028540611 1.3175621 0
0.30371866 -0.03035903 1.3169947 0
0.31097612 -0.024078369 1.315354 0
0.32166609 -0.024907827 1.3135328 0
0.3267332 -0.028964758 1.310972 0
0.22427209 -0.018257856 1.317534 0
0.22739322 -0.012408495 1.3108505 0
0.24403913 -0.014919043 1.317066 0
0.28621945 -0.014024258 1.3192952 0
0.29310521 -0.014426947 1.3168994 0
0.30356798 -0.013645887 1.3169085 0
0.31723961 -0.019011974 1.315729 0
0.33197603 -0.014567137 1.3128755 0
0.22573049 -0.0016038418 1.3127856 0
0.23995765 -0.0038118362 1.3167129 0
0.29137143 -0.0079774857 1.3176165 0
0.30164656 -0.0074167252 1.3177371 0
0.31194815 -0.0052092075 1.3143635 0
0.32229742 -0.007417202 1.3137156 0
0.22551306 0.0077774525 1.3151022 0
0.23291095 0.0016486645 1.3167648 0
0.28129038 0.0021603107 1.3195157 0
0.29044256 0.005266428 1.3174706 0
0.30323419 0.00056958199 1.3180915 0
0.31130466 0.0072653294 1.31273 0
0.32139882 0.0023052692 1.3142087 0
0.33119711 0.0073773861 1.3135883 0
0.2337056 0.011284113 1.3177545 0
0.24218448 0.013765097 1.3189623 0
0.29048571 0.010012865 1.3195487 0
0.30175623 0.013796806 1.3186589 0
0.3129774 0.012685537 1.311996 0
0.32456025 0.012513161 1.3130817 0
0.22572406 0.02302289 1.3134555 0
0.23502405 0.02699399 1.3153921 0
0.29052171 0.028023958 1.3194308 0
0.30602059 0.026225328 1.3162811 0
0.31186828 0.023151159 1.3142672 0
0.32121 0.024942636 1.3135369 0
0.22471984 0.037813902 1.314523 0
0.2316478 0.034908056 1.3182431 0
0.24238403 0.034426928 1.3182732 0
0.28545055 0.036187649 1.3195162 0
0.29477295 0.034363747 1.3168945 0
0.30347332 0.038413048 1.3166782 0
0.30905589 0.032772303 1.3159318 0
0.32115588 0.034017324 1.3144331 0
0.33291301 0.030831575 1.3116267 0
0.30382356 0.046147346 1.3175671 0
0.31240901 0.041733503 1.3141154 0
0.32281432 0.043971777 1.313556 0
0.33252701 0.046812296 1.3119519 0
0.22407587 0.055093527 1.3149948 0
0.23957975 0.053326368 1.3160068 0
0.29168591 0.049320459 1.3186679 0
0.31065235 0.056835413 1.3142546 0
0.31957731 0.056306124 1.3140923 0
0.33005986 0.055098772 1.3145434 0
0.23408444 0.066560507 1.3143655 0
0.24141105 0.067373037 1.3198951 0
0.29067716 0.06572175 1.3190999 0
0.30178818 0.061309099 1.3173565 0
0.31324396 0.063889742 1.3153884 0
0.32330665 0.063875437 1.3133314 0
0.23167093 0.076375723 1.3174276 0
0.23980577 0.075272322 1.3152434 0
0.29238424 0.071437597 1.3176179 0
0.30310687 0.075325727 1.3163737 0
0.31001529 0.074104548 1.3135977 0
0.32866582 0.074135065 1.3123925 0
0.22465499 0.086344719 1.3143042 0
0.24143036 0.088247061 1.3196135 0
0.30194864 0.088316679 1.3180244 0
0.309939 0.085631847 1.3153114 0
0.32167563 0.083047152 1.3136308 0
0.22249134 0.096096754 1.3171276 0
0.23717721 0.096336603 1.312637 0
0.29413947 0.0934093 1.3178478 0
0.30495724 0.095912695 1.3171835 0
0.31077346 0.096394062 1.3125529 0
0.32164392 0.096509695 1.3140093 0
0.33029255 0.092713118 1.3140894 0
0.23260958 0.10138297 1.3156831 0
0.24322112 0.10118842 1.3157889 0
0.29101476 0.10554242 1.3186903 0
0.30187973 0.10761619 1.3179904 0
0.30795297 0.10391688 1.3156538 0
0.32180437 0.10458207 1.3143911 0
0.23010857 0.11309028 1.3188766 0
0.30359849 0.10994554 1.3185356 0
0.31088027 0.10996461 1.3160145 0
0.31962499 0.11088705 1.3146664 0
0.33162841 0.11711812 1.3125286 0
0.22409256 0.12833285 1.314025 0
0.24017318 0.1206677 1.3137689 0
0.30148062 0.12439513 1.3190974 0
0.3088797 0.12607741 1.3158939 0
0.32643637 0.1283524 1.3111331 0
0.23172434 0.13142467 1.316437 0
0.24184473 0.13366532 1.3185551 0
0.28547868 0.13236165 1.3197918 0
0.29325995 0.13571572 1.3159106 0
0.31285915 0.1337707 1.3158424 0
0.31990513 0.13132453 1.3144168 0
0.33124551 0.13510966 1.31284 0
0.24012168 0.14303684 1.3133613 0
0.29403195 0.14909482 1.3199164 0
0.30135259 0.14611125 1.3182981 0
0.31158242 0.14873862 1.3171487 0
0.32145938 0.14586282 1.313205 0
0.22457226 0.1548419 1.3126628 0
0.23099835 0.15219855 1.3197941 0
0.30345377 0.14985108 1.3185779 0
0.31052575 0.15432048 1.3132569 0
0.32169184 0.15841079 1.3125647 0
0.22289188 0.16899371 1.3146868 0
0.23352678 0.16465974 1.3134404 0
0.23998435 0.16278911 1.3140882 0
0.29085812 0.16755414 1.3184192 0
0.30006608 0.1632607 1.3190112 0
0.30853829 0.1666224 1.3153515 0
0.32293639 0.16379046 1.313941 0
0.33227381 0.15939021 1.3116086 0
0.24279149 0.17596006 1.3157585 0
0.30390319 0.17454791 1.3171151 0
0.31206474 0.17188907 1.3164396 0
0.31961283 0.17387795 1.3132801 0
0.33114848 0.17524266 1.3127247 0
0.23592623 0.18418336 1.3113351 0
0.29006752 0.18614316 1.3192072 0
0.30040011 0.18661237 1.3184156 0
0.31022295 0.18518424 1.3183861 0
0.32409105 0.17954969 1.3134049 0
0.33714804 0.18820572 1.3123415 0
0.23128398 0.19109607 1.3155005 0
0.28459963 0.19566178 1.3199962 0
0.30290374 0.19364095 1.3171408 0
0.30945644 0.19217801 1.3141756 0
0.31932101 0.19091439 1.3147573 0
0.33034548 0.19285893 1.3134866 0
0.22417648 0.20196557 1.3120152 0
0.23477133 0.20490527 1.3114973 0
0.24352439 0.2041738 1.3142961 0
0.29479036 0.20843554 1.3133507 0
0.31128225 0.20530343 1.3154318 0
0.32076535 0.20216084 1.3151662 0
0.23045452 0.21131635 1.3161948 0
0.2371958 0.21328092 1.3100051 0
0.29267773 0.21521688 1.3182828 0
0.3007997 0.21091294 1.3177371 0
0.31105742 0.21535373 1.3153352 0
0.32228479 0.21902299 1.3142366 0
0.33053645 0.21521544 1.3131607 0
0.33821782 0.21391845 1.3110962 0
0.2237397 0.22514224 1.3120406 0
0.23367269 0.2237165 1.3125823 0
0.24244888 0.22286797 1.3154063 0
0.2894412 0.22883487 1.319363 0
0.30589589 0.22538495 1.3158802 0
0.31193313 0.2244308 1.3154392 0
0.32527861 0.22731042 1.3121927 0
0.23016365 0.23549247 1.3160549 0
0.30061778 0.23063588 1.3186164 0
0.3090435 0.23490691 1.3144155 0
0.3195146 0.23229194 1.3157712 0
0.32948932 0.2327292 1.3141842 0
0.3383244 0.23617601 1.3108838 0
0.23159464 0.24607921 1.3162606 0
0.24348743 0.24504328 1.3124932 0
0.31548437 0.24759126 1.3158602 0
0.323737 0.24310708 1.3137012 0
0.22362955 0.25116229 1.3115289 0
0.24227102 0.25608683 1.3165286 0
0.2888411 0.24984765 1.3198372 0
0.30047616 0.25342345 1.3186425 0
0.30897269 0.25649047 1.3149751 0
0.31793818 0.25113225 1.316074 0
0.33347353 0.25510859 1.3128814 0
0.23007114 0.26169014 1.3155956 0
0.24275906 0.26702237 1.3130193 0
0.30433831 0.26484656 1.3173683 0
0.30993161 0.2602663 1.3145146 0
0.322198 0.26367307 1.3142922 0
0.24134429 0.27723551 1.3173748 0
0.29952368 0.27578807 1.3185847 0
0.30870494 0.27615118 1.3163607 0
0.32187638 0.27489948 1.3137224 0
0.22378261 0.27976346 1.3105769 0
0.23319156 0.281708 1.3137722 0
0.30244455 0.2821517 1.3183013 0
0.30999145 0.28427482 1.3143981 0
0.32081541 0.28429842 1.3140849 0
0.33011326 0.28141379 1.3132517 0
0.33844361 0.28204775 1.3105526 0
0.23151 0.29854512 1.312778 0
0.24322326 0.29697394 1.3117857 0
0.29173264 0.28930068 1.3160474 0
0.31508598 0.29340625 1.3159895 0
0.31683764 0.29366159 1.3170035 0
0.34204683 0.28992534 1.3112493 0
0.23166402 0.30026269 1.3153841 0
0.24114187 0.30314326 1.3172956 0
0.29013786 0.30667281 1.3177192 0
0.29992351 0.29979873 1.31892 0
0.30837402 0.30337596 1.314754 0
0.31983647 0.30068994 1.3166031 0
0.33030304 0.30620122 1.3129138 0
0.23265393 0.31297016 1.3124591 0
0.30435237 0.31385088 1.3172238 0
0.31452689 0.3155458 1.316456 0
0.32986149 0.31080174 1.3108191 0
0.28909954 0.32596278 1.3196056 0
0.29988751 0.32837701 1.3176845 0
0.31057653 0.32872605 1.31692 0
0.32149133 0.32518363 1.3143085 0
0.32923397 0.32581758 1.3139493 0
0.33992252 0.32835698 1.3133194 0
0.23251493 0.33355021 1.3138523 0
0.24199136 0.33593965 1.3158736 0
0.29026541 0.33363247 1.3172822 0
0.30901393 0.33168602 1.3138996 0
0.33016071 0.33651614 1.3105173 0
0.30142078 0.34343886 1.3181543 0
0.31208429 0.34557033 1.3170433 0
0.31794533 0.34559608 1.3169585 0
0.23152597 0.35711455 1.3114421 0
0.28885135 0.35314775 1.3187208 0
0.30121478 0.35451436 1.3183777 0
0.30869517 0.3560288 1.314141 0
0.32835349 0.35307622 1.3118346 0
0.33810052 0.35321355 1.310596 0
0.23129685 0.36540246 1.3163433 0
0.24225362 0.36638665 1.3151828 0
0.32355079 0.36280131 1.3137844 0
0.24053009 0.37806892 1.3195335 0
0.28809819 0.3768537 1.3193448 0
0.30164513 0.37125993 1.3177652 0
0.31088194 0.37279916 1.3150969 0
0.31761178 0.37409043 1.3156354 0
0.33742723 0.3756454 1.3112068 0
0.23167904 0.38890338 1.3105173 0
0.28084692 0.38007426 1.3199648 0
0.3007513 0.37913585 1.3187772 0
0.30982646 0.3816855 1.3158352 0
0.32203636 0.38675427 1.3143681 0
0.32862052 0.38102078 1.3116978 0
0.34085068 0.38230681 1.312499 0
0.23167761 0.39828753 1.3154001 0
0.24230845 0.39662147 1.3147423 0
0.30366668 0.3893764 1.3177248 0
0.31491551 0.39195895 1.3169944 0
0.32457408 0.3948319 1.3128476 0
0.33671531 0.39852643 1.3118563 0
0.2981976 0.40139985 1.3189268 0
0.32898292 0.4024322 1.3137996 0
0.23054679 0.41297221 1.3115444 0
0.28955826 0.41357875 1.3172513 0
0.30174503 0.41176414 1.3176576 0
0.30923614 0.41303635 1.3132406 0
0.32181057 0.41261363 1.314574 0
0.2315224 0.42893958 1.3151473 0
0.30508336 0.42371678 1.3161263 0
0.31425056 0.42081475 1.3160483 0
0.32113299 0.42504716 1.3139856 0
0.33634076 0.42369723 1.312139 0
0.34336743 0.41960692 1.3101451 0
0.24274714 0.43021798 1.3138015 0
0.28835854 0.43649364 1.3184036 0
0.29937062 0.43247724 1.3186736 0
0.30912766 0.43390584 1.316334 0
0.31994948 0.43140101 1.3164024 0
0.32679304 0.43435073 1.3103647 0
0.24044831 0.44115281 1.3184069 0
0.30326065 0.44385362 1.3179954 0
0.3322812 0.44316268 1.3115373 0
0.34238991 0.44214272 1.3111036 0
0.30191764 0.45768714 1.3167987 0
0.31460938 0.4513967 1.3154454 0
0.32300529 0.45628142 1.3127204 0
0.32863817 0.45644403 1.3138735 0
0.23116834 0.45940375 1.3151405 0
0.24300154 0.46384645 1.3130808 0
0.2886537 0.46673131 1.318603 0
0.30067405 0.4643681 1.318594 0
0.30957994 0.46541142 1.3156972 0
0.32093963 0.46462584 1.3154002 0
0.34206185 0.46831918 1.3114474 0
0.23966248 0.46930671 1.3188933 0
0.3036271 0.47530103 1.3175375 0
0.31004199 0.47553468 1.3183775 0
0.30331358 0.48578715 1.3169841 0
0.32219037 0.48618865 1.3135668 0
0.32807621 0.4855864 1.3133876 0
0.23330005 0.49076653 1.3174911 0
0.24277122 0.4956162 1.3129623 0
0.28727373 0.49224591 1.3190711 0
0.30011901 0.49181771 1.3190787 0
0.23902495 0.50047421 1.3188124 0
0.31376728 0.50703359 1.3159975 0
0.34261259 0.4993856 1.3109596 0
0.30477747 0.51189399 1.3159622 0
0.32008752 0.51284051 1.3150868 0
0.32811078 0.51852441 1.3118767 0
0.33701333 0.51291108 1.3110291 0
0.24210389 0.52571702 1.3133876 0
0.24772771 0.52256846 1.3184601 0
0.28812775 0.52723289 1.3187571 0
0.29909548 0.52274013 1.3184218 0
0.3077949 0.52039456 1.3160808 0
0.34141549 0.52306628 1.3121287 0
0.23246415 0.5370903 1.312427 0
0.23896106 0.53556108 1.3183182 0
0.30237994 0.53073144 1.3186657 0
0.32461748 0.53742528 1.3125852 0
0.33617815 0.53902555 1.311794 0
0.29627952 0.54455781 1.3197783 0
0.31130061 0.54498219 1.3164911 0
0.32084069 0.54432678 1.3135979 0
0.32840738 0.5453589 1.313635 0
0.2348872 0.55701184 1.319713 0
0.24687274 0.55274987 1.3190135 0
0.30582747 0.54997849 1.3141689 0
0.30813417 0.55395675 1.3156583 0
0.32213411 0.55888057 1.3145869 0
0.32899866 0.55330062 1.3115802 0
0.34211263 0.5566299 1.3115046 0
0.23780043 0.56458259 1.3192042 0
0.28767523 0.56082344 1.3178701 0
0.30184826 0.56257033 1.3181067 0
0.31337437 0.56883597 1.3160125 0
0.23184688 0.56951785 1.3127148 0
0.24378045 0.57226777 1.3108059 0
0.29611906 0.57744718 1.319656 0
0.30492482 0.57807469 1.3149385 0
0.3152872 0.56952095 1.3169153 0
0.32478365 0.57469583 1.311703 0
0.33703527 0.57484746 1.3107283 0
0.24099763 0.58700514 1.3148282 0
0.28657302 0.58887744 1.3188543 0
0.30798206 0.58305955 1.3167911 0
0.32085881 0.58730865 1.3153968 0
0.32921872 0.5838697 1.3119736 0
0.34222755 0.58838153 1.3114327 0
0.23522456 0.59804225 1.3184397 0
0.24001558 0.60060906 1.3155324 0
0.24866183 0.60286641 1.3158033 0
0.30421957 0.60223746 1.3181376 0
0.31484517 0.60566497 1.3156549 0
0.32467636 0.60441995 1.3120335 0
0.33717641 0.60800433 1.3104306 0
0.23310454 0.61623025 1.3104966 0
0.29584417 0.61079383 1.3196592 0
0.30533013 0.61396575 1.3147833 0
0.30709919 0.61506486 1.3165675 0
0.31977567 0.61486173 1.3164494 0
0.32869157 0.61395955 1.3124281 0
0.34130368 0.61593461 1.3123461 0
0.28604874 0.62156177 1.3191153 0
0.30081305 0.62498736 1.31899 0
0.23528703 0.63862777 1.3175415 0
0.2418247 0.63216448 1.3128524 0
0.24798639 0.63708282 1.3160529 0
0.31248745 0.63197112 1.3165631 0
0.3240405 0.63467097 1.3126242 0
0.33519706 0.63398933 1.3114293 0
0.2385648 0.64658618 1.3172767 0
0.30496153 0.64299583 1.3165499 0
0.31130943 0.64177752 1.317317 0
0.32800183 0.64413857 1.3130555 0
0.232246 0.64976478 1.3110646 0
0.29934081 0.65475583 1.319375 0
0.32051787 0.65318036 1.3156893 0
0.34304628 0.65794945 1.3107353 0
0.28655967 0.66207361 1.318087 0
0.30249843 0.66803956 1.3181803 0
0.31164226 0.66279387 1.3172867 0
0.32377085 0.668051 1.3127981 0
0.3343223 0.6602571 1.3132111 0
0.23452194 0.67442536 1.3178415 0
0.24153407 0.67067957 1.3124827 0
0.24763878 0.67508101 1.315812 0
0.30612954 0.67533469 1.3192673 0
0.31622824 0.67911267 1.3151758 0
0.33091387 0.67073512 1.3125625 0
0.3485404 0.67289662 1.3109199 0
0.24273737 0.68072581 1.3107091 0
0.30461916 0.68297386 1.3143709 0
0.30713901 0.68653369 1.3163613 0
0.32890782 0.68592668 1.3116232 0
0.23248298 0.69257975 1.3101541 0
0.23911341 0.69122458 1.3160692 0
0.28527889 0.69238114 1.3192549 0
0.29898795 0.68966317 1.3196294 0
0.32087931 0.69072413 1.3153059 0
0.3434163 0.69424462 1.3104261 0
0.30257377 0.70568562 1.3180037 0
0.31295118 0.70216966 1.3171014 0
0.32494625 0.70168757 1.314285 0
0.3347908 0.70525575 1.3105454 0
0.34828004 0.70650697 1.3110952 0
0.24217446 0.71797013 1.310712 0
0.33690533 0.71029234 1.3102589 0
0.27361545 -0.30350327 1.3223101 0
0.23168738 -0.29641271 1.3254757 0
0.24407227 -0.29501677 1.3250382 0
0.2529777 -0.29373717 1.3238814 0
0.26074871 -0.29467392 1.3222764 0
0.27086052 -0.29385972 1.3231773 0
0.28396997 -0.29352975 1.3219984 0
0.22332557 -0.28728533 1.324084 0
0.23195012 -0.28642678 1.3245862 0
0.24275477 -0.28605032 1.3253479 0
0.25286326 -0.28620028 1.3241992 0
0.25819716 -0.28797936 1.3236949 0
0.27031192 -0.28650069 1.3236113 0
0.28013811 -0.28447175 1.3234756 0
0.22531708 -0.27876568 1.3227384 0
0.22849496 -0.27096677 1.3297236 0
0.24133928 -0.27599645 1.3260012 0
0.25238952 -0.27614403 1.3264407 0
0.26333222 -0.27789831 1.3249966 0
0.27075705 -0.27679849 1.3226589 0
0.27881321 -0.27130246 1.3220849 0
0.2224098 -0.26515126 1.3265194 0
0.23370297 -0.26436472 1.3224163 0
0.23991473 -0.2659843 1.3256015 0
0.24952944 -0.26539326 1.3271849 0
0.26222357 -0.2656343 1.3237447 0
0.28418693 -0.26857066 1.3214147 0
0.294772 -0.26227117 1.3231896 0
0.23519762 -0.25102639 1.3230929 0
0.24065001 -0.25663686 1.3272597 0
0.2511414 -0.25308394 1.3274059 0
0.25998959 -0.25530529 1.323312 0
0.27148184 -0.25640178 1.3221028 0
0.28183565 -0.25629306 1.3223203 0
0.28780422 -0.25792241 1.3215132 0
0.22264059 -0.25080872 1.3258229 0
0.23032816 -0.2483933 1.3252984 0
0.24100645 -0.24440789 1.326005 0
0.25459513 -0.24742508 1.3265791 0
0.26540527 -0.2493217 1.3259962 0
0.27038082 -0.24506545 1.3231596 0
0.28192291 -0.24366689 1.3222494 0
0.29255614 -0.24367738 1.3207064 0
0.22389729 -0.23160958 1.3235447 0
0.23145421 -0.23721743 1.3247802 0
0.24036558 -0.23564124 1.3276644 0
0.25243744 -0.23580551 1.3267274 0
0.2628015 -0.23433852 1.3256826 0
0.27008042 -0.23999929 1.3239588 0
0.28289089 -0.23537183 1.3217088 0
0.29340991 -0.23637319 1.3208833 0
0.2222832 -0.22480369 1.3256632 0
0.23081405 -0.22617507 1.3242291 0
0.24102028 -0.22573781 1.3258928 0
0.25092849 -0.22613263 1.3278097 0
0.2639223 -0.22340131 1.3242908 0
0.27065501 -0.22394753 1.3227743 0
0.28156623 -0.22589326 1.3224556 0
0.29180965 -0.22114825 1.321337 0
0.30129775 -0.22408247 1.3200738 0
0.23152192 -0.21596694 1.3243611 0
0.24186356 -0.21517158 1.3268118 0
0.25224504 -0.21300554 1.3266727 0
0.26059827 -0.21367502 1.3250341 0
0.27025971 -0.2127583 1.3233331 0
0.28285441 -0.21688557 1.3216311 0
0.29518089 -0.21116805 1.3222063 0
0.22250922 -0.20952296 1.3249499 0
0.23611386 -0.20624328 1.3208383 0
0.24123676 -0.20561337 1.3271308 0
0.25219402 -0.20621276 1.3266585 0
0.26228866 -0.20577216 1.3241767 0
0.28061709 -0.2065208 1.3234968 0
0.28950414 -0.20538783 1.3215382 0
0.22206862 -0.19694495 1.3252525 0
0.22928126 -0.195719 1.3269082 0
0.24083073 -0.19453311 1.3258141 0
0.2529932 -0.19523835 1.3258995 0
0.26127347 -0.19787598 1.3248019 0
0.2703062 -0.19505858 1.3226655 0
0.28095421 -0.19424033 1.3225787 0
0.29202971 -0.19428992 1.3207924 0
0.22918113 -0.18474078 1.3268398 0
0.24169929 -0.18550086 1.3266236 0
0.25350007 -0.18422079 1.3267212 0
0.2629188 -0.18250823 1.3253772 0
0.26932272 -0.188761 1.3239726 0
0.28398451 -0.18874097 1.321247 0
0.22364028 -0.17470527 1.3224487 0
0.23226984 -0.17656779 1.3239408 0
0.24266942 -0.17502856 1.3268541 0
0.25139055 -0.17564678 1.3268827 0
0.26418337 -0.17531705 1.3249388 0
0.26893076 -0.1766932 1.3244843 0
0.28207263 -0.17590785 1.3226144 0
0.28815016 -0.17945075 1.3202081 0
0.22196396 -0.16724586 1.3246388 0
0.23244794 -0.16712093 1.3222072 0
0.24190338 -0.16520715 1.3224453 0
0.25041947 -0.16624761 1.3284644 0
0.26082286 -0.16773701 1.3253872 0
0.27123627 -0.16436267 1.3237784 0
0.2846342 -0.16594815 1.3202372 0
0.22854598 -0.15402508 1.3271036 0
0.2420605 -0.15548444 1.3250409 0
0.25144777 -0.15448213 1.3263731 0
0.26168808 -0.15381265 1.3265545 0
0.27256474 -0.15224671 1.3214322 0
0.28329071 -0.15448236 1.3212156 0
0.29087338 -0.1573422 1.3217386 0
0.22280462 -0.14758229 1.3229396 0
0.23532017 -0.15070891 1.3206892 0
0.23973019 -0.14608026 1.3257599 0
0.25235972 -0.14634252 1.3271508 0
0.26380047 -0.14636087 1.3269668 0
0.27187404 -0.14613461 1.3227563 0
0.28500399 -0.14527345 1.3210558 0
0.22909339 -0.13896537 1.3259349 0
0.24059136 -0.13235164 1.32335 0
0.2511712 -0.13415051 1.3266672 0
0.2630268 -0.13558054 1.3205506 0
0.27097568 -0.13403964 1.322621 0
0.28243908 -0.13565135 1.320865 0
0.30059728 -0.13315701 1.3205121 0
0.22421892 -0.12463641 1.3203409 0
0.23158248 -0.12578082 1.323953 0
0.24020775 -0.12604928 1.3256423 0
0.25086269 -0.12608504 1.3267219 0
0.26300511 -0.12660861 1.3236302 0
0.27010879 -0.12557721 1.3228521 0
0.28083357 -0.12486172 1.3220781 0
0.29161844 -0.12571025 1.3205333 0
0.22226341 -0.11768651 1.3229407 0
0.23160131 -0.11089754 1.3218349 0
0.24363501 -0.11430717 1.3246179 0
0.25315031 -0.11463213 1.3264852 0
0.26306066 -0.11540389 1.3255737 0
0.26859078 -0.1203804 1.3248547 0
0.28074488 -0.11391377 1.321979 0
0.28692421 -0.11206889 1.3208828 0
0.30988941 -0.11856151 1.3210288 0
0.23254927 -0.10593581 1.3249341 0
0.24173005 -0.10751748 1.3273587 0
0.25320801 -0.10777545 1.3286414 0
0.27174267 -0.10419488 1.3230747 0
0.28383645 -0.10579181 1.3219296 0
0.29370627 -0.10435319 1.3228329 0
0.22333629 -0.095470667 1.3208461 0
0.22806819 -0.098644495 1.3270175 0
0.24051578 -0.097527981 1.325294 0
0.25201091 -0.095533371 1.326363 0
0.26360878 -0.097265482 1.3246361 0
0.28254136 -0.09820199 1.3218454 0
0.22273929 -0.081125975 1.3213259 0
0.24058492 -0.084796667 1.3270295 0
0.25096115 -0.08433938 1.3280258 0
0.26258263 -0.085413218 1.3257232 0
0.27011046 -0.086784601 1.3230437 0
0.28262052 -0.082495928 1.3212988 0
0.29557976 -0.081733942 1.3204492 0
0.22956808 -0.077060461 1.324152 0
0.24411781 -0.072698832 1.3281581 0
0.25211701 -0.072241545 1.3261873 0
0.26398453 -0.075198889 1.3270438 0
0.26942548 -0.071970463 1.3241358 0
0.28082356 -0.077787161 1.321506 0
0.28965148 -0.076402426 1.3208106 0
0.22200902 -0.067103386 1.3220034 0
0.24005635 -0.065987349 1.3254571 0
0.25129637 -0.064845324 1.3272175 0
0.25980052 -0.069592476 1.3235418 0
0.27020797 -0.066334963 1.3227005 0
0.28236279 -0.068372011 1.3218524 0
0.23266204 -0.057293415 1.3269711 0
0.23997433 -0.053070307 1.3286564 0
0.25360569 -0.059069395 1.3264924 0
0.26389369 -0.058442831 1.325495 0
0.27218041 -0.057655573 1.323951 0
0.28254279 -0.054329395 1.3222884 0
0.29215464 -0.057020903 1.321016 0
0.23137839 -0.044599771 1.3258685 0
0.24124153 -0.047133684 1.321517 0
0.25196061 -0.044859648 1.3264395 0
0.2630249 -0.04737711 1.327461 0
0.27246198 -0.044450521 1.3216151 0
0.28207096 -0.046019316 1.323078 0
0.29011783 -0.042523146 1.320169 0
0.22929271 -0.034753084 1.3233215 0
0.23964603 -0.03126502 1.3287096 0
0.25414047 -0.035655737 1.3262291 0
0.26047477 -0.032075167 1.3220801 0
0.26880631 -0.036708117 1.3229145 0
0.2808412 -0.034435034 1.3217987 0
0.29390368 -0.0399189 1.3219595 0
0.23569949 -0.021194696 1.3289719 0
0.24226959 -0.02781868 1.3262609 0
0.25218925 -0.027362108 1.3271623 0
0.26301798 -0.028188944 1.3250289 0
0.27111515 -0.023975611 1.3230047 0
0.2837325 -0.021999121 1.3208234 0
0.22930272 -0.01945281 1.3237315 0
0.24031051 -0.015724421 1.3264623 0
0.2544311 -0.016347647 1.3263572 0
0.26272449 -0.014345169 1.325748 0
0.26933703 -0.013315678 1.3242548 0
0.27986845 -0.01800561 1.3227172 0
0.24662907 -0.0026791096 1.3294544 0
0.25107321 -0.0082747936 1.3275169 0
0.26257643 -0.0056364536 1.3276683 0
0.26811895 -0.0018975735 1.3227236 0
0.27808318 -0.0044443607 1.3238738 0
0.29500589 -0.0012726784 1.3203028 0
0.23057945 0.0022826195 1.3224772 0
0.24165161 0.0037162304 1.3249867 0
0.2492028 0.0045874119 1.3285909 0
0.26098022 0.0055572987 1.329479 0
0.27236852 0.007491827 1.3213533 0
0.28400764 0.0019981861 1.3208121 0
0.23312266 0.018470049 1.3258362 0
0.24076994 0.015469551 1.3278593 0
0.25222072 0.014781713 1.3264509 0
0.26474866 0.014338732 1.3246517 0
0.27064309 0.014300585 1.3230672 0
0.28302225 0.014321089 1.3214648 0
0.29499206 0.016393661 1.3201416 0
0.2390569 0.024507284 1.3238187 0
0.26273736 0.025253057 1.3247578 0
0.2698482 0.022151709 1.323887 0
0.2799066 0.026901007 1.3223457 0
0.23179014 0.032487154 1.3268126 0
0.25142059 0.030114889 1.3271267 0
0.26145682 0.037183523 1.3240945 0
0.26807174 0.030530214 1.3241911 0
0.28277978 0.034914017 1.3213322 0
0.22991259 0.047011614 1.3206301 0
0.24173625 0.044344664 1.324447 0
0.25004253 0.042853594 1.3274571 0
0.26416954 0.04362464 1.3262392 0
0.27072725 0.044150591 1.3243256 0
0.28331336 0.045774221 1.3219719 0
0.28986701 0.043677092 1.3200505 0
0.2320431 0.054019213 1.3262188 0
0.24535044 0.055061579 1.3282256 0
0.2505866 0.055739641 1.3281666 0
0.25898299 0.054995298 1.3225409 0
0.27961335 0.054024458 1.3223825 0
0.25088176 0.066115141 1.328097 0
0.26466379 0.06170392 1.3243736 0
0.26947078 0.065293074 1.3232157 0
0.28238067 0.062488556 1.3222312 0
0.29401097 0.067939997 1.3207543 0
0.23547585 0.076110601 1.3285869 0
0.24278982 0.075539827 1.3276752 0
0.26371583 0.073946953 1.3265001 0
0.27507338 0.077013731 1.3264632 0
0.28166875 0.073209524 1.321511 0
0.28901848 0.078049421 1.3207915 0
0.23216994 0.083844423 1.3228524 0
0.23882945 0.084414005 1.3275239 0
0.25000009 0.085506678 1.3274982 0
0.2585679 0.083572149 1.3225981 0
0.26836738 0.085189104 1.322758 0
0.28340849 0.084982157 1.3215094 0
0.23153336 0.093755007 1.3263056 0
0.24503358 0.095434904 1.3280209 0
0.25317845 0.094769478 1.3267694 0
0.26139578 0.093922853 1.3276923 0
0.27383766 0.096526384 1.3210605 0
0.28123507 0.096266985 1.321225 0
0.2390755 0.10292673 1.3245672 0
0.24924143 0.10559106 1.327234 0
0.26607379 0.10407138 1.3241119 0
0.2707828 0.1048696 1.3234422 0
0.28108582 0.10576224 1.3220013 0
0.29277715 0.10188746 1.3218341 0
0.24269827 0.11394715 1.327225 0
0.25257954 0.11398959 1.3265438 0
0.26200208 0.11447453 1.3251476 0
0.26829657 0.11145854 1.3230903 0
0.28311953 0.11299682 1.3208352 0
0.22939236 0.12083936 1.3222175 0
0.24058636 0.12482333 1.3267727 0
0.25231394 0.12465262 1.3262187 0
0.26381525 0.1241405 1.3257104 0
0.27554139 0.12628675 1.3230715 0
0.28267416 0.12404299 1.3214133 0
0.29164752 0.1234138 1.3202542 0
0.2340544 0.13562036 1.3292844 0
0.24434979 0.13850379 1.3274312 0
0.25209054 0.13362288 1.3268576 0
0.26196751 0.13221097 1.3268098 0
0.27433953 0.13638902 1.3266039 0
0.28091058 0.13609338 1.3213383 0
0.28896579 0.13764215 1.3207095 0
0.23570116 0.13977599 1.328722 0
0.24583681 0.13977933 1.3278265 0
0.25053486 0.14405465 1.3272166 0
0.26356444 0.14114356 1.3264611 0
0.27194652 0.14404035 1.320859 0
0.28300819 0.14513373 1.3214549 0
0.24056084 0.15632319 1.3262217 0
0.25233921 0.15759873 1.3262352 0
0.26322207 0.15549207 1.3268828 0
0.27506647 0.15138936 1.3210852 0
0.27949342 0.15112638 1.3227711 0
0.23538454 0.16570544 1.3270295 0
0.24759538 0.16487956 1.3282318 0
0.26537499 0.16526151 1.3247015 0
0.27364191 0.16543794 1.322758 0
0.28196535 0.16370344 1.3218671 0
0.29296812 0.16573405 1.320974 0
0.23032196 0.17219615 1.3203346 0
0.24073704 0.1756022 1.3280067 0
0.25630388 0.1711905 1.3240237 0
0.26138315 0.17456985 1.3268349 0
0.26983961 0.17850184 1.322932 0
0.2818304 0.17129207 1.3217747 0
0.24345048 0.18215299 1.3270501 0
0.25048646 0.18714833 1.3266349 0
0.26209959 0.1849649 1.3274561 0
0.27478537 0.18347621 1.3254863 0
0.28162155 0.17954946 1.3237989 0
0.29248628 0.18558145 1.32133 0
0.22904904 0.18951821 1.3216451 0
0.23697694 0.19833112 1.3247272 0
0.2520543 0.19173527 1.326031 0
0.26368913 0.19430614 1.3254031 0
0.27454051 0.19410443 1.3211619 0
0.28230628 0.19024181 1.3200256 0
0.28761896 0.19745779 1.3217349 0
0.23393114 0.20841241 1.3279866 0
0.24260648 0.2023623 1.3278391 0
0.25253877 0.20604634 1.3253696 0
0.26469526 0.20881438 1.3249104 0
0.27043495 0.20057321 1.3240446 0
0.28106484 0.20335746 1.3220807 0
0.29975614 0.20199108 1.320343 0
0.23607524 0.21836877 1.3255532 0
0.24222 0.21258688 1.3283107 0
0.25082931 0.213938 1.3269722 0
0.26020393 0.21697974 1.3273109 0
