# .PCD v0.7 - Point Cloud Data file format
VERSION 0.7
FIELDS x y z rgb
SIZE 4 4 4 4
TYPE F F F F
COUNT 1 1 1 1
WIDTH 1254
HEIGHT 1
VIEWPOINT 0 0 0 1 0 0 0
POINTS 1254
DATA ascii
1.0005181 0.89313102 -0.0002758503 0
1.0344138 0.89173079 -0.00027948618 0
1.1043392 0.88747513 -0.00027751923 0
1.1231651 0.88891822 -0.00031608343 0
1.2397617 0.88821959 -0.00035500526 0
1.2431402 0.89986849 -0.00035583973 0
1.3049451 0.8938303 -0.00033795834 0
1.3475981 0.89356369 -0.00038504601 0
1.415976 0.89051253 -0.00036740303 0
1.4372274 0.88343072 -0.00042414665 0
1.4410874 0.89511847 -0.00042545795 0
1.4859512 0.88692343 -0.00039064884 0
-1.4522882 0.91831565 -3.0636787e-05 0
-1.4211305 0.91739202 -0.00033390522 0
-1.4181203 0.90538871 -0.00033259392 0
-1.3651545 0.91564488 -0.00042438507 0
-1.3404616 0.91024184 -0.00039219856 0
-1.3355086 0.90717196 -0.00031656027 0
-1.2586823 0.9122799 -0.00029104948 0
-1.2361234 0.91382933 -0.00028991699 0
-1.2085153 0.91374367 -0.00029559931 0
-1.1933656 0.91595942 -0.00023394823 0
-1.1719303 0.91210151 -0.00023239851 0
-1.1499138 0.90861094 -0.0002771318 0
-1.1299441 0.90681648 -0.00023512046 0
-1.113636 0.90503418 -0.00028181076 0
-1.0832945 0.90887594 -0.00025033951 0
-1.0495851 0.91262686 -0.00024288893 0
-1.0221848 0.91462088 -0.00016212463 0
-0.95721841 0.91040444 -0.00021481514 0
-0.91284406 0.90758485 -0.00018560886 0
-0.88401508 0.90934819 -0.00019997358 0
-0.86738986 0.91625857 -0.00023583572 0
-0.84856784 0.91320461 -0.00022614002 0
-0.7719028 0.91024482 -0.00016375384 0
-0.71261001 0.91343772 -0.00013756752 0
-0.65136975 0.91380525 -0.00010478497 0
-0.57990748 0.90954399 -9.5844269e-05 0
-0.5537352 0.9104948 -9.1314316e-05 0
-0.51270199 0.91373014 -9.137392e-05 0
-0.43624318 0.91126043 -9.3758106e-05 0
-0.4149254 0.91057932 -8.6426735e-05 0
-0.39368543 0.90948057 -4.2498112e-05 0
-0.371775 0.90832853 -0.00011646748 0
-0.29002541 0.91164696 -1.168251e-05 0
-0.2299439 0.91340321 -1.6093254e-06 0
-0.16035578 0.90665936 -1.5556812e-05 0
0.046304464 0.91224486 -2.1874905e-05 0
0.06595353 0.90950435 -7.6889992e-06 0
0.11574883 0.90787244 -1.3113022e-06 0
0.13601466 0.91033936 -3.5822392e-05 0
0.22764203 0.90765929 -1.4781952e-05 0
0.27447805 0.90678912 -4.5955181e-05 0
0.28078321 0.91754603 -3.2901764e-05 0
0.35161483 0.91079164 -0.00011487802 0
0.36958319 0.90839171 -8.9804336e-05 0
0.38841492 0.91181576 -9.2148781e-05 0
0.43267122 0.90697086 -9.4652176e-05 0
0.45589089 0.91003448 -0.00010174513 0
0.52685022 0.91035855 -0.00013244152 0
0.57440299 0.90691292 -0.00014424324 0
0.58781946 0.91319495 -0.00014209747 0
0.67656887 0.90619546 -0.00018888712 0
0.74909472 0.90736639 -0.00019673507 0
0.76049268 0.91829181 -0.00018656254 0
0.83104295 0.91056758 -0.00022441149 0
0.90725422 0.91096878 -0.0002156496 0
0.95450079 0.90859449 -0.0002374649 0
1.0047505 0.91065556 -0.00027734041 0
1.0387663 0.90925348 -0.0002809763 0
1.0482192 0.91832584 -0.00022792816 0
1.1104656 0.91078377 -0.00027984381 0
1.1293716 0.91220361 -0.00031793118 0
1.2465055 0.91147208 -0.00035691261 0
1.3102245 0.9112606 -0.00033974648 0
1.3530301 0.91100347 -0.00038659573 0
1.4235517 0.91379195 -0.00037050247 0
1.4468523 0.9125759 -0.00042718649 0
1.4938877 0.91027379 -0.00039321184 0
-1.4423033 0.93693519 -3.0875206e-05 0
-1.4241298 0.92935061 -0.00033533573 0
-1.348961 0.93594843 -0.00037038326 0
-1.3313183 0.93136901 -0.00031705698 0
-1.3081374 0.93661594 -0.00024217367 0
-1.287641 0.93292701 -0.00024068356 0
-1.2655201 0.929546 -0.00025701523 0
-1.2461663 0.92546242 -0.00023770332 0
-1.2286141 0.92832148 -0.00026160479 0
-1.2093275 0.92770445 -0.00030440092 0
-1.1542048 0.93296087 -0.00032436848 0
-1.1363053 0.92984521 -0.00024819374 0
-1.118665 0.92674541 -0.00033634901 0
-1.0744408 0.93041992 -0.00024700165 0
-1.0527383 0.93064153 -0.00024402142 0
-1.0134989 0.93681169 -0.00015890598 0
-0.98046947 0.93856949 -0.00023591518 0
-0.96441746 0.93241358 -0.00022560358 0
-0.95114917 0.93293107 -0.0002335906 0
-0.92742628 0.92836916 -0.00023192167 0
-0.91090953 0.93179667 -0.00018882751 0
-0.88937581 0.92926753 -0.00020198822 0
-0.87101984 0.93282914 -0.0001463294 0
-0.84646171 0.92802787 -0.00014340878 0
-0.82787287 0.92439359 -0.0001411438 0
-0.76968753 0.92840356 -0.00016522408 0
-0.7145564 0.93175685 -0.0001386404 0
-0.65309262 0.93218982 -0.00010609627 0
-0.5813719 0.92802954 -9.6738338e-05 0
-0.55126131 0.92823052 -7.5380012e-05 0
-0.51391608 0.93226659 -9.2029572e-05 0
-0.43717393 0.92989624 -9.4413757e-05 0
-0.415775 0.92921942 -8.6784363e-05 0
-0.39445692 0.92817092 -4.3272972e-05 0
-0.37246475 0.9270252 -0.00011742115 0
-0.29040325 0.93035907 -1.2159348e-05 0
-0.2598488 0.92850065 -7.1525574e-07 0
-0.23009339 0.93214226 -1.9073486e-06 0
-0.16020131 0.93169647 -1.5199184e-05 0
0.047201198 0.93092322 -2.18153e-05 0
0.066926621 0.92819631 -7.6293945e-06 0
0.11690707 0.92651063 -1.7881393e-06 0
0.13724673 0.92895126 -3.5762787e-05 0
0.22921054 0.92616278 -1.5854836e-05 0
0.27106816 0.92679977 -6.0260296e-05 0
0.28195089 0.92979097 -3.3140182e-05 0
0.34988946 0.92831445 -9.7235046e-05 0
0.3738775 0.93004411 -8.007884e-05 0
0.3905521 0.93005311 -9.2744827e-05 0
0.43573067 0.93119913 -9.572506e-05 0
0.45826578 0.92817736 -0.00010251999 0
0.52946436 0.92836225 -0.0001333952 0
0.57810962 0.9308303 -0.00014519691 0
0.59063756 0.9310925 -0.00014293194 0
0.67969698 0.92401624 -0.00018954277 0
0.68176651 0.9358058 -0.0001899004 0
0.74898916 0.93137997 -0.00020349026 0
0.7627483 0.93003917 -0.000187397 0
0.83587515 0.93396491 -0.00022572279 0
0.91113204 0.92844909 -0.00021713972 0
0.95854199 0.92604923 -0.00023895502 0
1.0103499 0.93384087 -0.00027912855 0
1.029377 0.93017375 -0.00020420551 0
1.0451247 0.92975307 -0.0002438128 0
1.06827 0.92867792 -0.00021803379 0
1.088847 0.92928278 -0.00022292137 0
1.1144111 0.9308542 -0.00025683641 0
1.1317241 0.92995191 -0.0002759099 0
1.1464849 0.93288106 -0.00023347139 0
1.1690092 0.93621731 -0.00023460388 0
1.1857681 0.93869972 -0.00023567677 0
1.2515283 0.92879039 -0.00035834312 0
1.3154724 0.92858714 -0.00034159422 0
1.3566347 0.92257619 -0.0003875494 0
1.3602277 0.9341104 -0.00038874149 0
1.429203 0.93115854 -0.00037264824 0
1.4525934 0.92996097 -0.00042879581 0
1.4998106 0.9276998 -0.00039505959 0
-1.4291118 0.95329154 -0.00024151802 0
-1.4084022 0.95466149 -0.00024932623 0
-1.3886293 0.95110279 -0.00024789572 0
-1.368721 0.94751966 -0.000246346 0
-1.3470631 0.94772673 -0.00030735135 0
-1.3273436 0.9451378 -0.00031554699 0
-1.2664676 0.94803035 -0.00029468536 0
-1.2135524 0.95352936 -0.00031638145 0
-1.1945878 0.95182872 -0.00031542778 0
-1.1498479 0.9551512 -0.00028795004 0
-1.1286798 0.94959414 -0.00030807656 0
-1.0830681 0.95829922 -0.00024330616 0
-1.0660141 0.9540931 -0.0002425909 0
-1.0536956 0.94960946 -0.000243783 0
-1.0323147 0.94853926 -0.00023961067 0
-1.0077196 0.95173603 -0.00019830465 0
-0.99068689 0.950993 -0.00018560886 0
-0.96476233 0.94898629 -0.00018751621 0
-0.94904912 0.94808418 -0.00015521049 0
-0.93127131 0.94460863 -0.00015336275 0
-0.91620934 0.94541264 -0.00017011166 0
-0.88997239 0.95150506 -0.00020241737 0
-0.78131789 0.95274282 -0.00016546249 0
-0.77204317 0.94851583 -0.00016629696 0
-0.71648276 0.94988823 -0.00013959408 0
-0.6547972 0.95038015 -0.00010704994 0
-0.58330309 0.95240855 -9.7930431e-05 0
-0.56076688 0.95418155 -0.00010919571 0
-0.55274409 0.948596 -7.6413155e-05 0
-0.51511663 0.95059508 -9.2625618e-05 0
-0.43809378 0.94831753 -9.4413757e-05 0
-0.41689456 0.95378542 -8.6903572e-05 0
-0.39521945 0.94664323 -4.3809414e-05 0
-0.37337378 0.95166242 -0.00011914968 0
-0.29077747 0.94889235 -1.2755394e-05 0
-0.26010966 0.94704348 -2.0265579e-06 0
-0.23024108 0.95065546 -2.1457672e-06 0
-0.16008687 0.95024574 -1.502037e-05 0
0.048087079 0.94937605 -2.1398067e-05 0
0.067887954 0.94666219 -7.7486038e-06 0
0.11843291 0.95106429 -2.3245811e-06 0
0.13846418 0.94734192 -3.5881996e-05 0
0.23127741 0.95054603 -1.6868114e-05 0
0.27333403 0.95109886 -6.0617924e-05 0
0.28368649 0.94799036 -3.3736229e-05 0
0.3520788 0.94843882 -9.7672149e-05 0
0.36532372 0.95204985 -0.00012159348 0
0.38730019 0.95008844 -7.1913004e-05 0
0.43800029 0.94917309 -9.6321106e-05 0
0.45983541 0.9401679 -0.00010299683 0
0.46139503 0.9520824 -0.00010371208 0
0.53291368 0.95211828 -0.00013440847 0
0.58923882 0.94873559 -0.00014456114 0
0.68484712 0.95335537 -0.00019061565 0
0.75230289 0.94889522 -0.00020432472 0
0.76610714 0.94753224 -0.0001885891 0
0.83946794 0.9513613 -0.00022661686 0
0.91626018 0.95156568 -0.00021934509 0
0.96388727 0.94913745 -0.00024074316 0
1.0145175 0.95109773 -0.00028049946 0
1.0488023 0.94965917 -0.00028383732 0
1.0997285 0.94080794 -0.00020945072 0
1.1112448 0.94254863 -0.00021016598 0
1.1287336 0.9456082 -0.00025686622 0
1.1474382 0.94987988 -0.00024918717 0
1.1735806 0.95197129 -0.00021493435 0
1.1935892 0.94742191 -0.00022596121 0
1.2101641 0.94990218 -0.00022721291 0
1.2266383 0.95236748 -0.00022834539 0
1.2521921 0.94969475 -0.00029942393 0
1.2678113 0.95085192 -0.0002399087 0
1.2892351 0.95402521 -0.00024116039 0
1.310478 0.95717168 -0.00024229288 0
1.3237194 0.95420831 -0.00031030178 0
1.3655927 0.95133448 -0.00039035082 0
1.4348249 0.94843459 -0.00037497282 0
1.4564055 0.94150388 -0.00043022633 0
1.4602057 0.95301199 -0.00043118 0
-1.4862238 0.96866786 -0.00025498867 0
-1.4669507 0.96519899 -0.00025349855 0
-1.4475586 0.96170878 -0.00025212765 0
-1.4304101 0.97207183 -0.00023726623 0
-1.349406 0.96663362 -0.00032150745 0
-1.3357868 0.97360516 -0.00041627884 0
-1.3113835 0.96870327 -0.00038456917 0
-1.2716029 0.97161263 -0.00029706955 0
-1.2115924 0.97280931 -0.00030696392 0
-1.1863205 0.97634017 -0.00027143955 0
-1.1643596 0.97070146 -0.00030052662 0
-1.1511278 0.97179449 -0.00024946532 0
-1.1301875 0.97098893 -0.0002925992 0
-1.110126 0.96885872 -0.00022145113 0
-1.0928304 0.97085351 -0.00019601981 0
-1.0668832 0.97379798 -0.00019530456 0
-1.0525062 0.96871924 -0.00020512938 0
-1.0302355 0.96395659 -0.00016486645 0
-1.0188062 0.96172214 -0.00016355515 0
-0.96655202 0.97015053 -0.00021934509 0
-0.92166942 0.9675163 -0.00019025803 0
-0.89248872 0.96931171 -0.00020325184 0
-0.78345007 0.97062665 -0.00016647577 0
-0.77021098 0.97032583 -0.00016784668 0
-0.71902543 0.97381955 -0.00014096498 0
-0.65648782 0.96841931 -0.00010824203 0
-0.58473587 0.97049606 -9.8466873e-05 0
-0.56211644 0.9722532 -0.00010991096 0
-0.55049741 0.97000349 -6.1154366e-05 0
-0.51630652 0.96876192 -9.3221664e-05 0
-0.43930647 0.97260129 -9.4532967e-05 0
-0.41772461 0.97199965 -8.6903572e-05 0
-0.39622444 0.9709903 -4.4584274e-05 0
-0.37404764 0.9699266 -0.00012040138 0
-0.29114729 0.96720731 -1.3291836e-05 0
-0.2604534 0.9714753 -3.9935112e-06 0
-0.23038737 0.96899319 -2.5033951e-06 0
-0.16001132 0.96249342 -1.4901161e-05 0
-0.15993631 0.9746536 -1.502037e-05 0
0.049254239 0.97368777 -2.104044e-05 0
0.069154538 0.97099149 -7.8678131e-06 0
0.11956371 0.96926188 -2.5033951e-06 0
0.1396701 0.96555877 -3.5881996e-05 0
0.14046659 0.9775902 -3.6120415e-05 0
0.23280969 0.9686228 -1.7404556e-05 0
0.27501416 0.96911573 -6.1154366e-05 0
0.2859745 0.97198206 -3.4630299e-05 0
0.35071078 0.96958852 -8.058548e-05 0
0.36731786 0.96991068 -0.00012165308 0
0.39163131 0.97123182 -7.9790756e-05 0
0.43950051 0.96105349 -9.6917152e-05 0
0.44099122 0.97285807 -9.7632408e-05 0
0.46371478 0.96980327 -0.00010454655 0
0.53547412 0.96975327 -0.00013494492 0
0.59034824 0.96918344 -0.00014585257 0
0.68790489 0.97077394 -0.00019156933 0
0.75558686 0.96625316 -0.0002052784 0
0.77054572 0.97064871 -0.00019019842 0
0.84303033 0.96861029 -0.00022751093 0
0.92007506 0.96876323 -0.0002207756 0
0.96918273 0.97201067 -0.0002425909 0
1.0172793 0.96253324 -0.00028133392 0
1.0200288 0.97391832 -0.00028216839 0
1.0544691 0.97247416 -0.00028550625 0
1.1255567 0.9681989 -0.00028592348 0
1.1446636 0.96957612 -0.00032269955 0
1.2343361 0.96115488 -0.0002194643 0
1.250639 0.96361935 -0.00022083521 0
1.2691944 0.96753597 -0.00026881695 0
1.2936146 0.97011542 -0.00022411346 0
1.3095498 0.97252417 -0.00022530556 0
1.3287902 0.96989614 -0.00026062131 0
1.3493905 0.97073627 -0.00023633242 0
1.372941 0.97031677 -0.00031918287 0
1.3937473 0.96950555 -0.00024694204 0
1.4141648 0.97252983 -0.00024801493 0
1.4344321 0.97553182 -0.00024902821 0
1.4484186 0.97493255 -0.00031402707 0
1.4658841 0.97020632 -0.00043308735 0
-1.4389617 0.98848689 -0.00034272671 0
-1.4119856 0.99346995 -3.1113625e-05 0
-1.3548892 0.99009353 -0.00032347441 0
-1.3258687 0.99317956 -0.00041353703 0
-1.3015602 0.98845339 -0.00038206577 0
-1.2918854 0.99845493 -0.00025850534 0
-1.272614 0.99271154 -0.00027096272 0
-1.2503731 0.99047202 -0.0002553463 0
-1.2262923 0.98901892 -0.0002810955 0
-1.2101054 0.98640609 -0.00025615096 0
-1.192961 0.99531102 -0.00021445751 0
-1.1689476 0.99182999 -0.00026509762 0
-1.1473793 0.98782343 -0.0002156496 0
-1.1308331 0.98763752 -0.0002579093 0
-1.1197884 0.98146468 -0.00017523766 0
-1.0630764 0.98970425 -0.00024807453 0
-1.0474321 0.99614191 -0.00023698807 0
-0.99589622 0.98178267 -0.00015223026 0
-0.97021759 0.99361426 -0.00022107363 0
-0.92513335 0.99103934 -0.00019204617 0
-0.89581358 0.99283975 -0.00020456314 0
-0.78556591 0.98837304 -0.00016748905 0
-0.77227968 0.98806757 -0.00016874075 0
-0.72091341 0.9915899 -0.00014185905 0
-0.65816081 0.98627275 -0.0001091361 0
-0.58615369 0.98839235 -9.9539757e-05 0
-0.56345445 0.99017048 -0.0001103878 0
-0.55179429 0.98793244 -6.210804e-05 0
-0.51748353 0.98673087 -9.3817711e-05 0
-0.44020575 0.99061024 -9.4652176e-05 0
-0.41854537 0.99000967 -8.6903572e-05 0
-0.39696968 0.98904359 -4.5418739e-05 0
-0.37471378 0.98798263 -0.00012147427 0
-0.29163462 0.99134457 -1.3947487e-05 0
-0.26070821 0.98958528 -5.364418e-06 0
-0.23053193 0.98711538 -2.9206276e-06 0
-0.15982482 0.99272221 -1.4662743e-05 0
0.050119333 0.99170732 -2.0861626e-05 0
0.070093319 0.98902416 -7.9870224e-06 0
0.12068145 0.98724812 -3.0398369e-06 0
0.14125749 0.98953795 -3.5881996e-05 0
0.23432463 0.9864949 -1.8239021e-05 0
0.27667543 0.98693115 -6.1392784e-05 0
0.28767133 0.98977506 -3.5405159e-05 0
0.3526299 0.9873004 -8.1062317e-05 0
0.37151587 0.99089092 -0.00011829536 0
0.38985294 0.98824644 -6.6637993e-05 0
0.4432084 0.99041641 -9.8228455e-05 0
0.46677566 0.993186 -0.00010567904 0
0.53800905 0.98721123 -0.00013577938 0
0.59140384 0.98944157 -0.0001470248 0
0.69093418 0.98803127 -0.00019210577 0
0.75884748 0.98348749 -0.00020623207 0
0.77029371 0.99398029 -0.00019669533 0
0.84774065 0.99141729 -0.00022888184 0
0.91229588 0.98689461 -0.00023531914 0
0.92623389 0.98721898 -0.0002270937 0
0.94949657 0.99309123 -0.00023788214 0
0.97050112 0.99259377 -0.00024151802 0
0.9800458 0.99817997 -0.00024008751 0
1.0241292 0.99089599 -0.00028347969 0
1.0586888 0.98946309 -0.00028657913 0
1.131507 0.99083769 -0.00028818846 0
1.1506948 0.99220377 -0.00032454729 0
1.2680771 0.98585021 -0.00036293268 0
1.3327754 0.98571414 -0.00034761429 0
1.3707613 0.98455715 -0.00028443336 0
1.3877714 0.984348 -0.00023114681 0
1.4082534 0.98744404 -0.00023275614 0
1.4285855 0.99051744 -0.00023424625 0
1.4492347 0.9938519 -0.00030824542 0
1.472258 0.99036443 -0.00030793747 0
1.4908432 0.98922724 -0.00024779639 0
-1.4433584 1.0060179 -0.00034475327 0
-1.4017556 1.0125461 -3.1113625e-05 0
-1.3931103 1.0179205 -0.00026589632 0
-1.3693213 1.0157783 -0.00028487048 0
-1.3550155 1.0093352 -0.00028355917 0
-1.3327948 1.0063217 -0.00026148558 0
-1.3103329 1.0106449 -0.00026488304 0
-1.2874031 1.011838 -0.00029194355 0
-1.2756732 1.0080861 -0.00022880237 0
-1.2537048 1.0076461 -0.00019097328 0
-1.2282182 1.0075669 -0.00026232004 0
-1.2168875 1.0004481 -0.00018668175 0
-1.1887228 1.0162284 -0.00027298927 0
-1.1676521 1.0117964 -0.00031715631 0
-1.1520977 1.012063 -0.00025457144 0
-1.1341908 1.0090789 -0.00033974648 0
-1.0661281 1.0071394 -0.00024920702 0
-1.0382749 1.0184236 -0.00023341179 0
-0.98697698 1.0045693 -0.0001488924 0
-0.97294354 1.0110633 -0.00022256374 0
-0.92770869 1.0085278 -0.00019347668 0
-0.89828503 1.010329 -0.00020563602 0
-0.78766155 1.0059509 -0.00016838312 0
-0.77501178 1.0114982 -0.00017005205 0
-0.72278291 1.009186 -0.00014287233 0
-0.66091788 1.0156928 -0.00011098385 0
-0.65982026 1.0039815 -0.00011014938 0
-0.60124969 1.019085 -0.00028502941 0
-0.58789575 1.0133402 -0.00016176701 0
-0.56477833 1.007899 -0.00011098385 0
-0.55350542 1.0115855 -6.3538551e-05 0
-0.51903611 1.010433 -9.483099e-05 0
-0.44109529 1.0084214 -9.4950199e-05 0
-0.41962767 1.0137573 -8.7082386e-05 0
-0.39770651 1.0068953 -4.5776367e-05 0
-0.37559205 1.0117881 -0.00012284517 0
-0.29199597 1.0092403 -1.4424324e-05 0
-0.26096004 1.0074871 -6.4969063e-06 0
-0.23072244 1.0110002 -3.2186508e-06 0
-0.15971437 1.0106231 -1.4424324e-05 0
0.050974421 1.0095186 -2.0682812e-05 0
0.071021236 1.0068486 -7.8678131e-06 0
0.12215465 1.0109553 -3.3974648e-06 0
0.14243312 1.007297 -3.5881996e-05 0
0.23632205 1.0100586 -1.9192696e-05 0
0.27886611 1.0104237 -6.1869621e-05 0
0.28934956 1.0073726 -3.6001205e-05 0
0.35516137 1.0106634 -8.1896782e-05 0
0.3696813 1.0076983 -0.00012524924 0
0.39209473 1.00767 -6.7512199e-05 0
0.40024698 1.0127847 -9.5248222e-05 0
0.44613418 1.0135865 -9.9122524e-05 0
0.46904787 1.0105436 -0.0001065731 0
0.54135537 1.0102584 -0.00013655424 0
0.5907383 1.0123175 -0.0001488924 0
0.60255539 1.0067793 -0.00014662743 0
0.69493663 1.0108325 -0.00019288063 0
0.7688818 1.0114374 -0.00020253658 0
0.81716156 1.0169026 -0.00024020672 0
0.83440214 1.0121737 -0.00022184849 0
0.85211492 1.0117948 -0.00022137165 0
0.87067342 1.0106955 -0.00020587444 0
0.88966787 1.0139819 -0.00020754337 0
0.90848702 1.0172379 -0.00020909309 0
0.92886722 1.0083969 -0.00022423267 0
0.97703588 1.0059311 -0.00024527311 0
0.99214923 1.0001962 -0.00024092197 0
1.010178 1.0031991 -0.00024205446 0
1.0317842 1.01027 -0.00026443601 0
1.0517354 1.0101215 -0.00024473667 0
1.0660964 1.0096916 -0.00026702881 0
1.0925608 1.016922 -0.00024777651 0
1.1098564 1.019803 -0.000248909 0
1.1374105 1.013298 -0.00029063225 0
1.1551888 1.0090648 -0.0003259182 0
1.2746148 1.0083921 -0.00036484003 0
1.3379114 1.0026711 -0.00034916401 0
1.3413206 1.0139275 -0.00035047531 0
1.3832941 1.0081648 -0.00039547682 0
1.4552304 1.0111395 -0.00038301945 0
1.4790431 1.0100534 -0.00043714046 0
1.4936907 1.0003586 -0.00023913383 0
-1.4911289 1.0367694 -0.00027292967 0
-1.4717563 1.0330441 -0.00027161837 0
-1.45073 1.0292783 -0.00030884147 0
-1.4326727 1.0255283 -0.00026869774 0
-1.4096564 1.0296135 -0.00023794174 0
-1.3881191 1.0329791 -0.00014809768 0
-1.3657339 1.0300303 -0.00024493536 0
-1.3462353 1.0257362 -0.00020164251 0
-1.3259265 1.0217657 -0.00019919872 0
-1.3058331 1.0327222 -0.0004080534 0
-1.2834103 1.0292749 -0.00032758713 0
-1.2272849 1.0288954 -0.00033724308 0
-1.1746886 1.0301212 -0.0003085534 0
-1.155985 1.0323946 -0.00028008223 0
-1.1385365 1.0321248 -0.00034075975 0
-1.0701654 1.030205 -0.00025063753 0
-0.97642362 1.0280988 -0.00019776821 0
-0.93026185 1.0258659 -0.00019478798 0
-0.90154874 1.0334249 -0.00020670891 0
-0.8999213 1.0219071 -0.00020635128 0
-0.79042995 1.0291705 -0.00016975403 0
-0.77704167 1.0289066 -0.00017118454 0
-0.72525167 1.0324221 -0.00014412403 0
-0.68124914 1.03716 -0.0002900362 0
-0.66440344 1.0334775 -0.00017098586 0
-0.64824557 1.0297031 -0.00028789043 0
-0.6308099 1.0324497 -0.00014841557 0
-0.61369056 1.0308883 -0.00010236105 0
-0.59107614 1.0301508 -5.6385998e-05 0
-0.56932563 1.0287613 -6.1571598e-05 0
-0.55305958 1.0253973 -3.8325787e-05 0
-0.52056897 1.0338353 -9.560585e-05 0
-0.44226843 1.0319124 -9.5427036e-05 0
-0.42043054 1.0313741 -8.7141991e-05 0
-0.39867824 1.0304366 -4.6491623e-05 0
-0.37624344 1.0294446 -0.00012397766 0
-0.29235321 1.0269344 -1.4841557e-05 0
-0.26129207 1.0310862 -8.3446503e-06 0
-0.23086371 1.0287094 -3.4570694e-06 0
-0.15960521 1.0283191 -1.4483929e-05 0
0.052101582 1.032997 -2.0205975e-05 0
0.072244436 1.0303445 -7.8678131e-06 0
0.12324709 1.028535 -3.695488e-06 0
0.14398301 1.03071 -3.5881996e-05 0
0.2382932 1.0333126 -2.0265579e-05 0
0.28629574 1.0320972 -4.9740076e-05 0
0.35766077 1.0337305 -8.2433224e-05 0
0.37383074 1.028244 -0.00012177229 0
0.39134365 1.0339205 -5.5134296e-05 0
0.40226787 1.0300303 -9.560585e-05 0
0.4483062 1.030787 -9.9897385e-05 0
0.47129709 1.0277264 -0.00010722876 0
0.54466271 1.0330374 -0.00013756752 0
0.59337944 1.0293604 -0.00014960766 0
0.60613382 1.0295045 -0.00014781952 0
0.6736052 1.0397073 -0.00020253658 0
0.69889629 1.03339 -0.0001937151 0
0.76847178 1.0343585 -0.00020849705 0
0.78144133 1.0273931 -0.00019431114 0
0.85157299 1.0253271 -0.00023861727 0
0.8685739 1.0259666 -0.000243783 0
0.88754809 1.0293119 -0.00024533272 0
0.91261643 1.0337315 -0.00024700165 0
0.93312186 1.0283241 -0.00022466182 0
0.94770759 1.0319642 -0.00023090839 0
0.97015321 1.0279076 -0.00021457672 0
0.9842574 1.0292146 -0.00023674965 0
1.0063829 1.034176 -0.00021755695 0
1.0313538 1.0355711 -0.00024195513 0
1.068428 1.0286729 -0.00028979778 0
1.1270164 1.0226613 -0.00024992228 0
1.1498548 1.0257921 -0.00028049946 0
1.1685247 1.0305902 -0.00027783713 0
1.1889651 1.0329803 -0.00025415421 0
1.2055907 1.0357497 -0.0002553463 0
1.2221211 1.0385033 -0.00025653839 0
1.2794902 1.0252019 -0.00036633015 0
1.2827255 1.036358 -0.0003670454 0
1.3464129 1.03074 -0.00035220385 0
1.3902981 1.0306506 -0.00039762259 0
1.4589053 1.0224324 -0.00038433075 0
1.4625701 1.0336945 -0.00038588047 0
1.4846418 1.0270066 -0.00043904781 0
-1.4944946 1.0547217 -0.00021898746 0
-1.4702365 1.0499792 -0.00021608672 0
-1.4503974 1.0487751 -0.00028187037 0
-1.4261482 1.0413597 -0.00021100044 0
-1.3811041 1.0510569 -3.1590462e-05 0
-1.3684185 1.0479798 -0.00032830238 0
-1.2914062 1.0526725 -0.00033847493 0
-1.2716842 1.0485194 -0.00037431717 0
-1.2308336 1.0460844 -0.00033849478 0
-1.1744188 1.052422 -0.00030799708 0
-1.1515156 1.0497662 -0.00028926134 0
-1.0741656 1.0530589 -0.00025218725 0
-1.0290391 1.0408976 -0.00022983551 0
-0.98011106 1.0569441 -0.00022602081 0
-0.97361398 1.0481613 -0.00018382072 0
-0.93363738 1.0487891 -0.00019645691 0
-0.90397358 1.0505838 -0.00020766258 0
-0.79316783 1.0521346 -0.00017094612 0
-0.77644086 1.0499315 -0.00021318595 0
-0.75221729 1.0531945 -0.00029456615 0
-0.72679919 1.0481741 -0.00024370353 0
-0.70995212 1.0501026 -0.0001500845 0
-0.69346333 1.0486047 -0.00010275841 0
-0.66586637 1.0481744 -4.3869019e-05 0
-0.64678252 1.042667 -9.894371e-06 0
-0.59078723 1.0468835 -0.00010222197 0
-0.56782198 1.0486583 -0.00011205673 0
-0.55603218 1.0465147 -6.54459e-05 0
-0.52170664 1.0512044 -9.6201897e-05 0
-0.44313878 1.0493426 -9.5367432e-05 0
-0.4212248 1.0488017 -8.7320805e-05 0
-0.3996374 1.0536733 -4.7326088e-05 0
-0.37688786 1.0469093 -0.00012522936 0
-0.29282427 1.0502652 -1.5556812e-05 0
-0.26153824 1.0485882 -9.2983246e-06 0
-0.23100342 1.0462205 -3.7550926e-06 0
-0.15946126 1.0516484 -1.4007092e-05 0
0.052937455 1.050408 -2.0027161e-05 0
0.073451214 1.0535252 -7.9274178e-06 0
0.12432736 1.0459192 -3.9339066e-06 0
0.14551242 1.0538127 -3.606081e-05 0
0.23975553 1.0505641 -2.0861626e-05 0
0.29004318 1.052604 -4.6253204e-05 0
0.35951579 1.0508513 -8.2850456e-05 0
0.37096143 1.0529156 -0.00013184547 0
0.38563356 1.049814 -9.3221664e-05 0
0.404935 1.0527902 -9.6321106e-05 0
0.45045644 1.0478158 -0.00010043383 0
0.47426647 1.05041 -0.00010830164 0
0.54711938 1.0499578 -0.00013804436 0
0.59599614 1.0462445 -0.00015044212 0
0.60967243 1.0519776 -0.00014895201 0
0.67550862 1.0508788 -0.00020301342 0
0.70183998 1.0501596 -0.00019443035 0
0.77163291 1.0510676 -0.00020933151 0
0.78572273 1.0496908 -0.00019586086 0
0.85817289 1.0419302 -0.00023138523 0
0.86046046 1.0530071 -0.00023186207 0
0.93874562 1.0529275 -0.00022810698 0
0.95585024 1.0413538 -0.0002502203 0
0.96805501 1.0435057 -0.00025129318 0
0.98679125 1.0485878 -0.00025078654 0
1.0102741 1.0509489 -0.00025415421 0
1.0358434 1.0509375 -0.00027197599 0
1.0531546 1.0476805 -0.000233531 0
1.0730914 1.0490307 -0.00026873749 0
1.0888364 1.0484424 -0.00022476912 0
1.1118904 1.0524312 -0.00022691488 0
1.1290483 1.0553999 -0.00022828579 0
1.1461288 1.0525062 -0.00026196241 0
1.1655715 1.0480185 -0.00032901764 0
1.2330785 1.0403284 -0.00025713444 0
1.2494237 1.043051 -0.00025820732 0
1.2710679 1.0466564 -0.00025975704 0
1.2900479 1.051626 -0.00031477213 0
1.3138397 1.053781 -0.00026273727 0
1.329713 1.0564251 -0.00026369095 0
1.3493271 1.056047 -0.00030970573 0
1.3972605 1.0530033 -0.00039964914 0
1.4680473 1.0505259 -0.00038784742 0
1.4920733 1.04951 -0.00044125319 0
-1.4978484 1.0661163 -1.0728836e-05 0
-1.4592963 1.0695648 -0.00035262108 0
-1.3727349 1.0707272 -0.00023074946 0
-1.2892489 1.0712763 -0.00035452843 0
-1.2615861 1.0688214 -0.00037145615 0
-1.2355335 1.0688502 -0.00033962727 0
-1.1814389 1.0722089 -0.00032991171 0
-1.1630816 1.0692474 -0.00025886297 0
-1.1497964 1.0707235 -0.0003156662 0
-1.1370884 1.0782146 -0.00029826164 0
-1.0771433 1.0700705 -0.00025331974 0
-1.0197229 1.0635672 -0.00022649765 0
-0.98276234 1.0739148 -0.00022733212 0
-0.95973033 1.0741796 -0.00013911724 0
-0.93697959 1.071485 -0.00019836426 0
-0.90717959 1.0732703 -0.00020903349 0
-0.87004757 1.0798171 -0.00030195713 0
-0.85181195 1.0756969 -0.00030076504 0
-0.82729524 1.0701575 -0.00029927492 0
-0.80823076 1.0740931 -0.00010323524 0
-0.78798771 1.0674326 -0.00018642347 0
-0.77027392 1.0698559 -6.7353249e-06 0
-0.75120914 1.0656586 -7.2717667e-06 0
-0.73043764 1.064104 -7.6889992e-05 0
-0.66577637 1.0675381 -0.00011408329 0
-0.59260154 1.0697875 -0.00010311604 0
-0.56910568 1.0658493 -0.00011247396 0
-0.55769104 1.0694473 -6.6697598e-05 0
-0.52283275 1.0683966 -9.6678734e-05 0
-0.44400012 1.0665895 -9.572506e-05 0
-0.4225291 1.0736983 -0.00015282631 0
-0.40444529 1.0724108 -0.00016528368 0
-0.37535661 1.0721741 -0.00017360847 0
-0.35568976 1.0730273 -0.00026679039 0
-0.3132391 1.0799659 -0.00029802322 0
-0.29328924 1.0732911 -1.6331673e-05 0
-0.26178187 1.0658979 -1.1086464e-05 0
-0.23118761 1.0693114 -4.2319298e-06 0
-0.15935454 1.0689505 -1.3947487e-05 0
0.053764123 1.0676272 -1.9907951e-05 0
0.074346364 1.0707196 -8.225441e-06 0
0.12575203 1.0688448 -4.529953e-06 0
0.14664693 1.070951 -3.5881996e-05 0
0.24120235 1.0676324 -2.1696091e-05 0
0.28793693 1.0687282 -5.5034958e-05 0
0.365179 1.0684806 -9.9500023e-05 0
0.38979602 1.0698458 -8.4459782e-05 0
0.40691519 1.0696888 -9.6797943e-05 0
0.45329538 1.0702972 -0.00010150671 0
0.47720116 1.072829 -0.00010937452 0
0.54955316 1.0667191 -0.00013875961 0
0.59859353 1.0630043 -0.00015115738 0
0.60888588 1.0741694 -0.00015056133 0
0.67834342 1.0675187 -0.00020343065 0
0.70475847 1.0667851 -0.00019514561 0
0.77476799 1.067639 -0.00021016598 0
0.78996217 1.07177 -0.00019735098 0
0.86387092 1.0695201 -0.00023299456 0
0.94240642 1.0694298 -0.0002297163 0
0.99243528 1.0724471 -0.00025069714 0
1.0429299 1.0687425 -0.00028955936 0
1.0722374 1.0633558 -0.00026988983 0
1.0886325 1.0697364 -0.0002713601 0
1.1098622 1.0685067 -0.00026154518 0
1.1270212 1.0715319 -0.00026273727 0
1.1508515 1.0721202 -0.00028043985 0
1.1693505 1.0686239 -0.00027818681 0
1.1909533 1.0661106 -0.0002335906 0
1.2131034 1.0699432 -0.00023567677 0
1.2296002 1.0727977 -0.00023710728 0
1.2459841 1.0756323 -0.00023859739 0
1.2622797 1.0784518 -0.00023984909 0
1.2923692 1.0696082 -0.00036990643 0
1.3582083 1.0696826 -0.00035631657 0
1.3663887 1.0625343 -0.00026631355 0
1.3871396 1.0659908 -0.00026768446 0
1.405982 1.0695109 -0.0003131628 0
1.4282073 1.0728316 -0.00027054548 0
1.4485331 1.0762174 -0.00027191639 0
1.4714434 1.0748262 -0.00035150847 0
1.4976226 1.0663142 -0.00044286251 0
-1.487021 1.0847735 -1.0848045e-05 0
-1.4635921 1.0866926 -0.00035470724 0
-1.3803911 1.0992056 -0.00033259392 0
-1.3689685 1.0889745 -0.00018191338 0
-1.2966716 1.0867307 -0.00030857325 0
-1.2752644 1.0930521 -0.00039935112 0
-1.2463875 1.0931646 -0.00035506487 0
-1.2390354 1.0858124 -0.00034070015 0
-1.1847475 1.0891254 -0.00033056736 0
-1.1674111 1.0917864 -0.00026065111 0
-1.1492381 1.0888746 -0.00034326315 0
-1.127242 1.0998578 -0.00029528141 0
-1.0810813 1.0925691 -0.00025475025 0
-1.0791163 1.0813444 -0.00025391579 0
-1.0103248 1.0864365 -0.00022292137 0
-0.98539686 1.0907788 -0.00022876263 0
-0.9466626 1.0980027 -0.0002374351 0
-0.93466443 1.0908501 -0.00025266409 0
-0.91122812 1.0895877 -0.00027306876 0
-0.89092803 1.0904696 -0.00015345216 0
-0.86952323 1.0917077 -4.4107437e-06 0
-0.85122657 1.0876794 -4.8875809e-06 0
-0.83277744 1.0836174 -5.2452087e-06 0
-0.79077905 1.0888025 -0.00017359853 0
-0.73130298 1.0893764 -0.00014740229 0
-0.66789591 1.0901562 -0.00011527538 0
-0.59439474 1.0924227 -0.00010436773 0
-0.57080036 1.0885444 -0.00011301041 0
-0.55933022 1.0921066 -6.80089e-05 0
-0.52431917 1.0910888 -9.7572803e-05 0
-0.50818944 1.0986646 -0.00028908253 0
-0.48718172 1.0934452 -0.00028777122 0
-0.46600509 1.0881838 -0.00028634071 0
-0.44875827 1.0910819 -0.00020515919 0
-0.42992172 1.0869188 -0.00021485488 0
-0.40423962 1.0867543 -0.00015974045 0
-0.38667083 1.0892639 -0.0002861619 0
-0.37678188 1.0933599 -0.00018596649 0
-0.35088015 1.0892136 -0.00030046701 0
-0.32837439 1.0836843 -0.00029885769 0
-0.29363415 1.0903751 -1.6689301e-05 0
-0.26210302 1.088728 -1.257658e-05 0
-0.23136941 1.0921013 -4.5895576e-06 0
-0.15924895 1.0860635 -1.3768673e-05 0
0.054854348 1.0903361 -1.9609928e-05 0
0.075231753 1.0877271 -8.1658363e-06 0
0.12715827 1.0914743 -4.8875809e-06 0
0.14776933 1.0879061 -3.6001205e-05 0
0.24311124 1.0901519 -2.2530556e-05 0
0.29164517 1.0888197 -5.1409006e-05 0
0.36923081 1.0883875 -0.0001078248 0
0.39233598 1.0921525 -8.5234642e-05 0
0.40887597 1.0864204 -9.7513199e-05 0
0.45610124 1.0925175 -0.00010246038 0
0.47938111 1.0894818 -0.0001103878 0
0.55276799 1.088861 -0.00013959408 0
0.60717309 1.0906525 -0.00015183291 0
0.682091 1.0895147 -0.00020438433 0
0.70861661 1.0887644 -0.00019586086 0
0.77891439 1.0895554 -0.00021123886 0
0.79416084 1.0936372 -0.00019884109 0
0.86838353 1.0913701 -0.00023412704 0
0.94604081 1.0858134 -0.0002310276 0
0.99748248 1.0942476 -0.00025254488 0
1.0482037 1.0905793 -0.0002912879 0
1.0834616 1.0891993 -0.00029408932 0
1.1577241 1.0905831 -0.00029873848 0
1.1774656 1.0881224 -0.00031050047 0
1.1889997 1.0824589 -0.00026726723 0
1.2056427 1.0853931 -0.00026845932 0
1.2276804 1.0892785 -0.00027006865 0
1.2495395 1.0931323 -0.00027173758 0
1.2718457 1.091411 -0.00026245913 0
1.2920235 1.0876492 -0.00030024053 0
1.3105739 1.0868078 -0.00024425983 0
1.3317761 1.0904763 -0.00024610758 0
1.3528228 1.0941178 -0.00024783611 0
1.3684711 1.0919874 -0.00030386448 0
1.407629 1.0862911 -0.00040262938 0
1.4737583 1.0804192 -0.00027358532 0
1.4861095 1.0851328 -0.00031399727 0
-1.4715707 1.107453 -0.00024187565 0
-1.3830267 1.1104817 -0.0003336668 0
-1.3496317 1.1097457 -3.2186508e-05 0
-1.3015721 1.109235 -0.00031077862 0
-1.2649331 1.1134415 -0.0003964901 0
-1.243608 1.1125207 -0.00035031638 0
-1.1880338 1.105929 -0.00033122301 0
-1.1717052 1.1141425 -0.00026237965 0
-1.152138 1.107816 -0.00031586489 0
-1.0840112 1.1093088 -0.00025594234 0
-1.0454807 1.1194543 -0.0003131628 0
-1.0284505 1.1156065 -0.00031197071 0
-1.0060835 1.1106224 -0.00026512146 0
-0.99011725 1.1110678 -0.0001804034 0
-0.97087306 1.1064057 -0.00020619234 0
-0.94972944 1.1103172 -6.8505607e-05 0
-0.92958617 1.1049316 -2.8014183e-06 0
-0.9118607 1.1049203 -0.00014158091 0
-0.80054837 1.11404 -0.00017416477 0
-0.79103386 1.1101682 -0.0001748403 0
-0.73367727 1.111724 -0.00014859438 0
-0.66999179 1.1125219 -0.00011664629 0
-0.59304291 1.1141579 -0.00019979477 0
-0.56912833 1.1117928 -0.00017659664 0
-0.54597771 1.1135495 -0.00028663874 0
-0.52760881 1.1098969 -0.00021181107 0
-0.5075658 1.1097364 -0.00027883053 0
-0.48647761 1.1046394 -0.0002771616 0
-0.46903941 1.1122997 -0.00029774508 0
-0.44617558 1.1120803 -0.00016649565 0
-0.42642188 1.1068475 -0.00016033649 0
-0.40592825 1.1070991 -0.0001770556 0
-0.37919974 1.1095744 -0.00012874603 0
-0.29397541 1.1072782 -1.6987324e-05 0
-0.26242012 1.1112669 -1.424551e-05 0
-0.23150429 1.1090111 -4.7683716e-06 0
-0.15910971 1.1086349 -1.3530254e-05 0
0.055930566 1.1127539 -1.9133091e-05 0
0.076399714 1.1101619 -8.1658363e-06 0
0.12854668 1.1138172 -5.1856041e-06 0
0.14925009 1.1102743 -3.606081e-05 0
0.24499653 1.1123933 -2.3365021e-05 0
0.29373905 1.111022 -5.209446e-05 0
0.37165147 1.1105038 -0.00010812283 0
0.39422226 1.1087184 -8.5830688e-05 0
0.40797162 1.1116004 -8.5393593e-05 0
0.45887512 1.1144845 -0.00010335445 0
0.48154044 1.1059778 -0.00011098385 0
0.5559479 1.1107613 -0.00014060736 0
0.61230445 1.1097758 -0.00015243888 0
0.68580049 1.1112875 -0.00020515919 0
0.71243632 1.1105243 -0.00019669533 0
0.78777587 1.1108116 -0.00020809969 0
0.8728559 1.1130251 -0.00023531914 0
0.95085251 1.1075039 -0.00023293495 0
1.0012422 1.1104875 -0.00025379658 0
1.0534365 1.1122463 -0.00029301643 0
1.0875053 1.1054786 -0.00029546022 0
1.163434 1.112307 -0.00030100346 0
1.1830693 1.1136671 -0.00033438206 0
1.2981029 1.1016943 -0.00027549267 0
1.3088012 1.1062562 -0.00032478571 0
1.3300169 1.1073207 -0.00027763844 0
1.3458383 1.1101102 -0.00027877092 0
1.3683438 1.1110107 -0.00032028556 0
1.391052 1.1094013 -0.00026676059 0
1.412977 1.1068864 -0.00035405159 0
1.4253322 1.1066633 -0.00025415421 0
1.4457383 1.1101942 -0.00025606155 0
1.4660145 1.1137023 -0.00025779009 0
1.4861596 1.1116774 -0.0003272891 0
-1.4716953 1.1287971 -0.000243783 0
-1.3869622 1.1273209 -0.0003349185 0
-1.3390046 1.1295624 -3.2305717e-05 0
-1.306438 1.1315789 -0.00031304359 0
-1.2514012 1.1322664 -0.00036841631 0
-1.2308599 1.1305966 -0.00036358833 0
-1.1923871 1.1281869 -0.00033211708 0
-1.1749045 1.1307986 -0.00026369095 0
-1.1576407 1.1334333 -0.00034511089 0
-1.1325393 1.1330767 -0.00029750666 0
-1.1104457 1.1294618 -0.00030867261 0
-1.0887163 1.130846 -0.00027692318 0
-1.0736148 1.1258109 -0.00031483173 0
-1.0567713 1.1220052 -0.00031375885 0
-1.0285821 1.1267275 -3.5762787e-07 0
-1.0113753 1.1229391 -7.1525574e-07 0
-0.99140567 1.1306984 -0.00022625923 0
-0.94384426 1.1254041 -0.00017913184 0
-0.91505754 1.1290184 -0.00021213293 0
-0.80252397 1.1306095 -0.00017529726 0
-0.78887373 1.1303803 -0.00017654896 0
-0.73602641 1.1338346 -0.00014984608 0
-0.67068112 1.1339819 -0.00020867586 0
-0.65018213 1.1339438 -0.00029850006 0
-0.62706172 1.1334207 -0.00029265881 0
-0.61041856 1.1275752 -0.0002928575 0
-0.59358644 1.1277907 -0.00019565225 0
-0.56830645 1.1284541 -0.00013043881 0
-0.55019212 1.1290991 -0.00029844046 0
-0.52869153 1.1317552 -0.00020599365 0
-0.50965095 1.1282214 -0.00031155348 0
-0.48863328 1.1230576 -0.00031006336 0
-0.44736841 1.1340389 -9.6440315e-05 0
-0.42483583 1.1280369 -8.7678432e-05 0
-0.40290079 1.1327312 -5.0008297e-05 0
-0.38002092 1.131832 -0.00013005733 0
-0.37961164 1.1207373 -0.00012981892 0
-0.29442576 1.1295815 -1.758337e-05 0
-0.26273328 1.1335235 -1.6033649e-05 0
-0.23163776 1.1257432 -5.0663948e-06 0
-0.1589722 1.1309195 -1.3291836e-05 0
0.05672922 1.1293896 -1.8835068e-05 0
0.077552944 1.1323143 -8.046627e-06 0
0.12957719 1.1303997 -5.6028366e-06 0
0.15071243 1.1323647 -3.606081e-05 0
0.24685904 1.1343651 -2.4497509e-05 0
0.29289302 1.1361645 -4.3551128e-05 0
0.3011868 1.131497 -4.0948391e-05 0
0.34968555 1.1331221 -0.00056314468 0
0.37222943 1.1329241 -0.00021728873 0
0.38709638 1.1300313 -0.00011873245 0
0.40844297 1.1322259 -7.969141e-05 0
0.4609361 1.1308056 -0.0001039505 0
0.48439288 1.1277683 -0.00011205673 0
0.55909371 1.1324277 -0.00014144182 0
0.60960376 1.1340493 -0.00015419722 0
0.62176186 1.1287543 -0.0001527667 0
0.68947303 1.1328442 -0.00020575523 0
0.71621859 1.1320715 -0.00019752979 0
0.79117817 1.1287416 -0.00020909309 0
0.8014155 1.1314199 -0.0002014637 0
0.87728894 1.1344901 -0.00023645163 0
0.95562434 1.1290147 -0.0002348423 0
1.004977 1.1266198 -0.00025510788 0
1.0586295 1.1337488 -0.00029474497 0
1.0928633 1.12705 -0.00029712915 0
1.1691045 1.1338809 -0.00030314922 0
1.1873885 1.1298721 -0.00033569336 0
1.309813 1.1297541 -0.00037485361 0
1.3764962 1.1300623 -0.00036251545 0
1.4120854 1.122345 -0.00032416981 0
1.4269192 1.1284039 -0.00032556057 0
1.449283 1.1283478 -0.00028628111 0
1.4695718 1.1319247 -0.00028777122 0
1.4915351 1.1318535 -0.00034359097 0
-1.4791795 1.1488419 -0.00036227703 0
-1.4541633 1.1413927 -1.1205673e-05 0
-1.3921816 1.149652 -0.00033682585 0
-1.3283077 1.1495094 -3.2305717e-05 0
-1.3112698 1.1537671 -0.00031530857 0
-1.2491512 1.1496599 -0.00035977364 0
-1.2207105 1.1552932 -0.0003426075 0
-1.2102851 1.1566901 -0.00032353401 0
-1.1954589 1.151666 -0.00032767653 0
-1.1724455 1.1482066 -0.00030350685 0
-1.1509353 1.1432805 -0.00031971931 0
-1.1294293 1.1443205 -0.00025212765 0
-1.1073114 1.1436651 -0.00028896332 0
-1.0917373 1.1534486 -0.00025880337 0
-0.99047345 1.1531574 -0.00022617976 0
-0.9484272 1.1492248 -0.00020420551 0
-0.93171847 1.1457448 -0.00012886524 0
-0.91815639 1.1509478 -0.00021320581 0
-0.80513585 1.1525171 -0.00017642975 0
-0.79079139 1.1468265 -0.00017738342 0
-0.74678659 1.157946 -0.00030481815 0
-0.73109472 1.1522363 -0.00025272369 0
-0.70880049 1.1550864 -0.00029746693 0
-0.68935084 1.1470084 -0.00029850006 0
-0.67151958 1.1472993 -0.00020518899 0
-0.65024424 1.1442229 -0.00029039383 0
-0.63373137 1.1525435 -0.00030978522 0
-0.61211586 1.1533954 -0.00031852722 0
-0.59537429 1.1481657 -0.00021198392 0
-0.56842679 1.1470764 -0.00014322996 0
-0.55801558 1.1401038 -0.00031495094 0
-0.52795917 1.1466604 -9.9539757e-05 0
-0.44819209 1.1505334 -9.6440315e-05 0
-0.42583966 1.1500632 -8.7857246e-05 0
-0.40358248 1.1492457 -5.0663948e-05 0
-0.38063008 1.1483413 -0.00013136864 0
-0.29487056 1.1516112 -1.8119812e-05 0
-0.26296565 1.1500441 -1.7046928e-05 0
-0.23181388 1.1478217 -5.2452087e-06 0
-0.15883645 1.152926 -1.3053417e-05 0
0.057519622 1.1458533 -1.8656254e-05 0
0.078691944 1.1541929 -8.225441e-06 0
0.13059708 1.1468123 -5.9008598e-06 0
0.15215698 1.1541857 -3.6180019e-05 0
0.19203472 1.1487378 -0.00028085709 0
0.20844364 1.1526014 -0.00028204918 0
0.22473717 1.1564384 -0.00028347969 0
0.24824196 1.1506798 -2.5033951e-05 0
0.29194739 1.150704 -6.4969063e-05 0
0.30670619 1.1498718 -2.8332075e-05 0
0.32928777 1.1468045 -1.3113022e-06 0
0.34486103 1.1503448 -8.3446503e-07 0
0.36877459 1.1538516 -2.9007595e-05 0
0.38762602 1.1487085 -0.00021152497 0
0.41197753 1.1495585 -0.00028173925 0
0.43362892 1.1518427 -0.00057816505 0
0.44856668 1.1551738 -0.00058078766 0
0.46312213 1.1508127 -0.00026424727 0
0.48721409 1.149321 -0.00011277199 0
0.56220657 1.1538665 -0.00014233589 0
0.61209339 1.1501138 -0.00015485287 0
0.62513596 1.1501824 -0.00015377998 0
0.69310993 1.1541908 -0.00020647049 0
0.71903259 1.1481022 -0.00019800663 0
0.72089678 1.1587222 -0.00019848347 0
0.79112107 1.1540762 -0.00021439791 0
0.80448771 1.1474195 -0.0002027154 0
0.88058996 1.1504734 -0.0002373457 0
0.95917904 1.1450384 -0.00023627281 0
0.96153593 1.1556636 -0.00023698807 0
1.0099247 1.14799 -0.00025689602 0
1.0625 1.1497755 -0.00029587746 0
1.0981824 1.1484649 -0.00029873848 0
1.1733334 1.1499703 -0.00030493736 0
1.1916838 1.1459873 -0.00033700466 0
1.3160858 1.1513826 -0.00037658215 0
1.3830777 1.1517918 -0.00036484003 0
1.4281135 1.1520557 -0.00040864944 0
1.4986954 1.1447062 -0.00039994717 0
-1.4833852 1.165611 -0.00036430359 0
-1.4430823 1.1604879 -1.1563301e-05 0
-1.431935 1.1796961 -1.1563301e-05 0
-1.3973678 1.1718421 -0.00033867359 0
-1.3124756 1.1726654 -0.00022637844 0
-1.2894127 1.1745682 -0.0003285408 0
-1.2685012 1.1698434 -0.0003272891 0
-1.2518492 1.1671286 -0.00033566356 0
-1.2325399 1.1684911 -0.00035637617 0
-1.2060325 1.1750921 -0.00034606457 0
-1.1881714 1.168425 -0.00028884411 0
-1.1638556 1.1663911 -0.0003464222 0
-1.1192734 1.1662602 -0.00024843216 0
-1.0959139 1.1678274 -0.00027310848 0
-0.9982965 1.1733515 -0.00023508072 0
-0.97188354 1.1799767 -0.00020837784 0
-0.95163047 1.1709778 -0.00020587444 0
-0.92155236 1.171801 -0.00018465519 0
-0.82761854 1.1780293 -0.00031024218 0
-0.80821228 1.1739564 -0.00022137165 0
-0.7918399 1.1706277 -0.00025482179 0
-0.77232116 1.1705823 -0.00030215582 0
-0.74849844 1.1671022 -0.00026342273 0
-0.73354656 1.162107 -0.00022393465 0
-0.71044821 1.1775544 -0.00032550097 0
-0.69109559 1.1727997 -0.00032424927 0
-0.67335451 1.1676928 -0.00022134185 0
-0.6519202 1.1631749 -0.00032138824 0
-0.60051197 1.1696446 -0.0001078248 0
-0.57075018 1.1676625 -9.3787909e-05 0
-0.52938616 1.1684461 -0.00010037422 0
-0.44900787 1.1668682 -9.6738338e-05 0
-0.42683175 1.1718321 -8.7857246e-05 0
-0.40425742 1.1655977 -5.1140785e-05 0
-0.3814342 1.1701365 -0.00013285875 0
-0.29531002 1.1733756 -1.8954277e-05 0
-0.26319575 1.1663979 -1.8417835e-05 0
-0.23198786 1.1696306 -5.7816505e-06 0
-0.15873566 1.1692619 -1.2874603e-05 0
0.058562741 1.1675813 -1.8417835e-05 0
0.079537548 1.1704354 -8.5830688e-06 0
0.13194332 1.1684759 -6.2584877e-06 0
0.15322946 1.1703869 -3.6239624e-05 0
0.24928123 1.1644874 -0.00015538931 0
0.27294278 1.1677896 -0.0002874136 0
0.29189786 1.1683934 -0.00013963382 0
0.30504495 1.174829 -0.00012497108 0
0.32017136 1.1789104 -0.00029087067 0
0.37203696 1.1664109 -8.6069107e-05 0
0.39008424 1.1696471 -9.7656251e-05 0
0.4114767 1.1687152 -6.4945219e-05 0
0.42119884 1.1677005 -1.1920929e-07 0
0.4698374 1.1661539 -0.00026583672 0
0.49094233 1.1687758 -0.00027231377 0
0.50738275 1.1682909 -0.00059151649 0
0.52905339 1.1731237 -0.00059533119 0
0.55054939 1.1779175 -0.0005992651 0
0.56452101 1.1698072 -0.00014281273 0
0.61456227 1.1660442 -0.00015568733 0
0.62847644 1.171397 -0.00015479326 0
0.6958158 1.1700733 -0.00020718575 0
0.72367561 1.1745527 -0.00019907951 0
0.79412186 1.1699378 -0.00021505356 0
0.80855346 1.1685936 -0.00020432472 0
0.88386786 1.1663448 -0.00023806095 0
0.9650532 1.1715183 -0.000238657 0
1.0148344 1.169197 -0.00025868416 0
1.0663471 1.1657045 -0.00029730797 0
1.1034639 1.1697285 -0.0003002286 0
1.1775393 1.1659715 -0.0003066659 0
1.1973801 1.1673583 -0.00033867359 0
1.3223226 1.1728876 -0.00037831068 0
1.3896244 1.1734066 -0.0003670454 0
1.4348717 1.1737525 -0.000410676 0
-1.4889667 1.1878649 -0.0003669858 0
-1.4207208 1.1990204 -1.180172e-05 0
-1.4025223 1.1938958 -0.00034052134 0
-1.3920869 1.1977663 -0.00033509731 0
-1.371789 1.1931802 -0.00033390522 0
-1.3513768 1.1885682 -0.00033247471 0
-1.3308462 1.1839297 -0.00033116341 0
-1.3147459 1.1859434 -0.00025004148 0
-1.2618797 1.1964654 -0.00034713745 0
-1.2596316 1.185577 -0.0003464222 0
-1.2228693 1.1964588 -0.00038504601 0
-1.2052498 1.1939549 -0.00033462048 0
-1.1908022 1.1919293 -0.00029726824 0
-1.1679595 1.1881536 -0.00034743547 0
-1.1090363 1.1883755 -0.00024485588 0
-1.0939847 1.1867832 -0.00026837987 0
-1.000827 1.1895493 -0.00023627281 0
-0.95480549 1.1925386 -0.00020748377 0
-0.9242695 1.1942068 -0.00021559 0
-0.90932679 1.1960561 -0.00021851063 0
-0.88815171 1.1930692 -0.00031423569 0
-0.8708083 1.1946083 -0.00030958652 0
-0.8494131 1.1879125 -0.00030884147 0
-0.82845509 1.1872975 -0.00030446053 0
-0.80984038 1.1853302 -0.00026150545 0
-0.79114783 1.1931679 -0.00025516748 0
-0.7676717 1.1916132 -0.00032937527 0
-0.74526381 1.1875403 -0.00024053454 0
-0.72967029 1.1822768 -0.00032663345 0
-0.67715138 1.1889222 -0.00012123585 0
-0.60221708 1.1911676 -0.00010889769 0
-0.57233399 1.1892095 -9.4681978e-05 0
-0.5307973 1.1899898 -0.00010114908 0
-0.45008516 1.1884412 -9.6976757e-05 0
-0.42781246 1.1933515 -8.7916851e-05 0
-0.40514871 1.1871899 -5.1796436e-05 0
-0.38222897 1.1916785 -0.00013411045 0
-0.29563639 1.1895374 -1.9431114e-05 0
-0.2634995 1.1879858 -2.0027161e-05 0
-0.23215976 1.1911783 -6.1988831e-06 0
-0.20047359 1.1992536 -3.5762787e-07 0
-0.1586359 1.1854329 -1.2755394e-05 0
-0.13191247 1.1894555 -0.00057280064 0
-0.11366439 1.194319 -0.00057637691 0
-0.095554113 1.1991462 -0.0005800724 0
0.059593305 1.1890476 -1.8179417e-05 0
0.080374658 1.1865156 -8.4042549e-06 0
0.13327351 1.1898817 -6.7353249e-06 0
0.15429141 1.186429 -3.606081e-05 0
0.25141966 1.1881678 -2.6404858e-05 0
0.29543692 1.1881254 -6.5684319e-05 0
0.30681932 1.1905583 -4.3392181e-05 0
0.33570552 1.1825684 -0.00029230118 0
0.35113716 1.186202 -0.00029349327 0
0.37171489 1.1883677 -0.00015604496 0
0.39204493 1.1924785 -0.00019006729 0
0.40900862 1.1875603 -6.3478947e-05 0
0.42153195 1.1944203 -0.00010079145 0
0.46834564 1.1894832 -0.0001064539 0
0.49276692 1.19174 -0.00011491776 0
0.5693239 1.1841387 -0.00037321448 0
0.59294748 1.1873729 -0.00060677528 0
0.6141898 1.188236 -0.00030748051 0
0.62974572 1.1937646 -0.00038444996 0
0.64834118 1.1997266 -0.00061678886 0
0.69850051 1.1858312 -0.00020766258 0
0.72643757 1.1902866 -0.00019967556 0
0.79710078 1.185683 -0.00021594763 0
0.81258357 1.1895831 -0.00020563602 0
0.88820815 1.1873605 -0.00023925304 0
0.96971238 1.1925217 -0.00024032593 0
1.0184937 1.185003 -0.00025975704 0
1.0209213 1.1954889 -0.00026082993 0
1.0714459 1.1868174 -0.00029879808 0
1.1087091 1.1908455 -0.00030177832 0
1.1831167 1.187192 -0.00030881166 0
1.2030401 1.1885939 -0.00034040213 0
1.3285253 1.1942737 -0.00038015842 0
1.3945135 1.1895477 -0.00036871433 0
1.4399197 1.189959 -0.0004119873 0
-1.492033 1.2130728 -0.00036017102 0
-1.4722142 1.2158701 -0.0003401041 0
-1.4523342 1.2113783 -0.00033885241 0
-1.4323556 1.2068646 -0.00033760071 0
-1.410089 1.2083675 -0.00025671721 0
-1.323208 1.2085891 -0.0003207922 0
-1.2957863 1.2101538 -3.2782555e-05 0
-1.2652359 1.2127236 -0.00034797192 0
-1.2102926 1.2138833 -0.00035852194 0
-1.1900275 1.2134491 -0.00029750666 0
-1.1720328 1.2097546 -0.00034826994 0
-1.1012194 1.2076218 -0.00026249886 0
-1.098716 1.2106702 -0.00024116039 0
-1.076803 1.2107239 -0.00027990341 0
-1.0033396 1.2056332 -0.00023752451 0
-0.98808646 1.2178988 -0.0003207922 0
-0.96597159 1.212563 -0.00028973818 0
-0.95186502 1.2119492 -0.00027372836 0
-0.92955959 1.2094489 -0.00028964877 0
-0.90880692 1.2081256 -0.00026395917 0
-0.8892386 1.2019892 -0.00030934811 0
-0.87243688 1.2173525 -0.00033676624 0
-0.84815145 1.211386 -0.0003349781 0
-0.82980025 1.2068775 -0.00033378601 0
-0.81143117 1.2043451 -0.00025588274 0
-0.79832482 1.2114348 -0.00018066168 0
-0.74406099 1.2094557 -0.0001540184 0
-0.67914933 1.2102426 -0.00012236834 0
-0.60390401 1.2124629 -0.00010979176 0
-0.58017981 1.2141479 -0.00011658669 0
-0.57180804 1.2093184 -8.8651977e-05 0
-0.53219318 1.2112994 -0.00010204315 0
-0.45115042 1.2097721 -9.7095966e-05 0
-0.42878217 1.2146289 -8.803606e-05 0
-0.40602988 1.2085366 -5.2571297e-05 0
-0.38301468 1.2129748 -0.00013542175 0
-0.3004849 1.2191234 -0.00031363964 0
-0.29249123 1.2086837 -0.00011734168 0
-0.26549381 1.2119389 -9.4234943e-05 0
-0.25212479 1.2102673 -0.00016629696 0
-0.23279542 1.2115014 -1.2079875e-05 0
-0.20951232 1.2075071 -1.1861324e-05 0
-0.18029046 1.2117079 -0.00026524067 0
-0.1618638 1.2167939 -0.00026714802 0
-0.15850419 1.2067809 -1.257658e-05 0
-0.077580214 1.2039365 -0.00058364868 0
-0.050885081 1.2110515 -0.0005890727 0
-0.024451256 1.2180969 -0.00059437752 0
0.060611695 1.2102604 -1.7881393e-05 0
0.081479877 1.2077454 -8.3446503e-06 0
0.1345882 1.2110379 -7.0333481e-06 0
0.15569364 1.2076108 -3.6120415e-05 0
0.25320745 1.2092584 -2.7298927e-05 0
0.29740059 1.2091831 -6.6041946e-05 0
0.30832428 1.2063394 -4.3809414e-05 0
0.37661353 1.2086488 -8.7320805e-05 0
0.39172992 1.2058362 -0.00012505054 0
0.4088701 1.2087502 -0.00013524294 0
0.425098 1.2070732 -0.00020039082 0
0.44905794 1.20926 -0.00030130148 0
0.47102845 1.2117521 -0.00017265479 0
0.49223155 1.2143756 -0.00017857552 0
0.56985056 1.2065135 -0.00014424324 0
0.62806028 1.2105911 -0.00015714765 0
0.6687839 1.2042856 -0.00062036514 0
0.68907654 1.208811 -0.00062417984 0
0.7056191 1.2099881 -0.00041803718 0
0.72916955 1.2098503 -0.00034399828 0
0.80881155 1.2084593 -0.00021195412 0
0.89251339 1.2082064 -0.00024044514 0
0.97433639 1.213366 -0.00024217367 0
1.0245452 1.2111418 -0.00026196241 0
1.0765092 1.2077827 -0.00030040741 0
1.1139191 1.2118207 -0.00030362606 0
1.1886592 1.2082787 -0.00031095743 0
1.2086654 1.2096987 -0.00034213066 0
1.3331561 1.2102411 -0.00038135052 0
1.3977616 1.2002721 -0.00036978722 0
1.4010022 1.2109705 -0.00037097931 0
1.4449477 1.2061012 -0.00041359663 0
