# .PCD v0.7 - Point Cloud Data file format
VERSION 0.7
FIELDS x y z rgb
SIZE 4 4 4 4
TYPE F F F F
COUNT 1 1 1 1
WIDTH 1386
HEIGHT 1
VIEWPOINT 0 0 0 1 0 0 0
POINTS 1386
DATA ascii
-0.24003148 -0.4260169 1.0391395 0
-0.23805892 -0.4305442 1.0292397 0
0.65079808 -0.42460632 1.0247592 0
1.0579424 -0.42864057 1.0390829 0
1.0691779 -0.43041918 1.0312108 0
-1.3751028 -0.40945473 1.0294296 0
-1.3125898 -0.41689396 1.0304645 0
-0.49359089 -0.40944013 1.0277561 0
-0.41602165 -0.41102523 1.0296485 0
-0.24054518 -0.4091979 1.0359972 0
-0.23805472 -0.40815163 1.0287924 0
0.61617148 -0.40043831 1.0204644 0
0.62873274 -0.40529868 1.0305219 0
0.64661634 -0.41442463 1.0292164 0
1.0588329 -0.41631311 1.0390395 0
1.0697426 -0.40985668 1.0337867 0
1.0837152 -0.40830803 1.0251023 0
-1.3747691 -0.38897216 1.0299022 0
-1.3120475 -0.38822699 1.03332 0
-0.49351537 -0.39021248 1.0306717 0
-0.41641647 -0.3953591 1.0294716 0
-0.24024387 -0.39225757 1.0389581 0
-0.23842606 -0.38788617 1.0300272 0
0.57531714 -0.38160858 1.0298804 0
0.58870125 -0.38742322 1.0295937 0
0.60889345 -0.396117 1.031846 0
1.0599347 -0.39793092 1.0391896 0
1.0711079 -0.39033085 1.0341768 0
1.0867972 -0.39035049 1.0255328 0
-1.3750103 -0.36937648 1.0313354 0
-1.3120493 -0.37034902 1.0322442 0
-0.4932434 -0.37017316 1.0294482 0
-0.24076803 -0.37531942 1.0387014 0
-0.23830664 -0.37016797 1.0288444 0
0.55458689 -0.3682062 1.0311443 0
0.56560051 -0.3773582 1.0280511 0
1.0713989 -0.36940074 1.0349367 0
1.0901282 -0.36914498 1.0248479 0
-1.374971 -0.34881124 1.0296059 0
-1.312464 -0.35332558 1.0287303 0
-0.49332717 -0.34960723 1.0305601 0
-0.24014489 -0.35110316 1.0371553 0
-0.23842999 -0.35234687 1.0297161 0
0.55060732 -0.35181725 1.0303234 0
1.0725393 -0.35065538 1.0361956 0
1.0897459 -0.34947023 1.0266887 0
-1.3751718 -0.32960576 1.0306537 0
-1.3114334 -0.33196053 1.0294844 0
-0.49350697 -0.32849172 1.0294762 0
-0.24029529 -0.32761729 1.0394723 0
-0.23826073 -0.33126223 1.0291346 0
0.54939121 -0.33164445 1.03093 0
1.0743716 -0.32925516 1.0373157 0
1.0898812 -0.33023253 1.0274849 0
1.1012113 -0.32635742 1.0205725 0
-1.374975 -0.30987644 1.0298376 0
-1.3115761 -0.3096016 1.0324423 0
-0.49318507 -0.30932245 1.0297734 0
-0.24083161 -0.30981797 1.035972 0
-0.23798425 -0.30926362 1.0286058 0
0.5488869 -0.31111777 1.0308185 0
1.0759457 -0.30991936 1.0378251 0
1.0900882 -0.31011218 1.0281963 0
1.1007433 -0.30131584 1.0205058 0
-1.3751494 -0.2894243 1.0303649 0
-1.3129989 -0.2907553 1.0299976 0
-0.49333206 -0.29075915 1.0303836 0
-0.24024519 -0.29568172 1.0342493 0
-0.23837593 -0.28778374 1.0302373 0
0.54875535 -0.29098395 1.0317502 0
1.0766546 -0.28956378 1.037801 0
1.0905889 -0.2902334 1.0282806 0
1.101408 -0.28658646 1.0206916 0
-1.3749621 -0.26927075 1.029454 0
-1.3121378 -0.26977751 1.0305367 0
-0.49348256 -0.27073446 1.0301696 0
-0.24053389 -0.26538819 1.034467 0
-0.23833317 -0.26812732 1.0303954 0
0.54634082 -0.26902965 1.0310855 0
1.0772086 -0.26875642 1.0375887 0
1.0897593 -0.26979885 1.0291348 0
1.1021193 -0.27060363 1.0210404 0
-1.3749043 -0.24985708 1.0301495 0
-1.3123378 -0.24715123 1.0325513 0
-0.49304968 -0.24954167 1.0306245 0
-0.24039595 -0.25145477 1.0326765 0
-0.23823328 -0.25074592 1.0295384 0
0.53487295 -0.25011107 1.0311799 0
0.54281175 -0.2587809 1.0329432 0
0.97509778 -0.24238962 1.0399953 0
0.98921889 -0.24158287 1.0367984 0
1.0083474 -0.24286775 1.0366106 0
1.0287 -0.24291654 1.0352116 0
1.0499626 -0.24400489 1.0347288 0
1.0710658 -0.24685486 1.0327609 0
1.0898826 -0.24973698 1.0278351 0
1.1023908 -0.25029027 1.0212036 0
-1.3751923 -0.22977723 1.0306771 0
-1.3122689 -0.22927013 1.0324043 0
-0.49323013 -0.23000464 1.0294691 0
-0.2400651 -0.22934116 1.0391672 0
-0.23811735 -0.2314523 1.0290076 0
0.53389049 -0.23345867 1.029264 0
0.97759807 -0.23915872 1.0395896 0
0.9903596 -0.22979827 1.0351653 0
1.0105417 -0.23007208 1.0272386 0
1.0289316 -0.23426013 1.0250731 0
1.0490754 -0.23739541 1.0248963 0
1.0667762 -0.23791941 1.0231605 0
1.1037844 -0.23867345 1.0205956 0
-1.3751037 -0.20975895 1.0298318 0
-1.3127079 -0.21389009 1.0278603 0
-0.49309966 -0.21020804 1.0307014 0
-0.24053952 -0.21885318 1.0391123 0
-0.23832239 -0.20990445 1.0299331 0
0.53644478 -0.21407087 1.0306734 0
0.54081339 -0.20486283 1.0399139 0
0.9912374 -0.20975164 1.0361253 0
1.0105504 -0.21001121 1.0269684 0
1.0236834 -0.2117283 1.0207461 0
-1.3748544 -0.19103295 1.0301645 0
-1.3112811 -0.19328535 1.0257782 0
-0.49324203 -0.19018286 1.0292913 0
-0.24011613 -0.19024485 1.036752 0
-0.23836997 -0.18890758 1.0307709 0
0.53747475 -0.19146305 1.0284909 0
0.54124087 -0.18958807 1.0382619 0
0.99169528 -0.1900371 1.0361371 0
1.0098047 -0.18957163 1.0275019 0
1.0226045 -0.19146712 1.0214766 0
-1.3751048 -0.17012417 1.0287477 0
-1.3123664 -0.16812317 1.03081 0
-0.49305367 -0.1698281 1.0305115 0
-0.24004769 -0.16319712 1.0398581 0
-0.23830721 -0.16927308 1.0301232 0
0.53848237 -0.17324202 1.0266066 0
0.54151785 -0.16715473 1.0352564 0
0.99176896 -0.16944395 1.036342 0
1.0095776 -0.17020631 1.0277829 0
1.0228834 -0.17099312 1.0214541 0
-1.3750757 -0.14896484 1.0309037 0
-1.3113506 -0.14545071 1.0334089 0
-0.49309996 -0.150727 1.029819 0
-0.24067141 -0.14551258 1.0362835 0
-0.23815654 -0.15030773 1.0292232 0
0.53858042 -0.1539557 1.0222706 0
0.99173093 -0.14864191 1.0364864 0
1.0102257 -0.1500401 1.0275867 0
1.0235034 -0.14995907 1.0212511 0
-1.3749261 -0.1292223 1.0307983 0
-1.3135234 -0.13153565 1.0340924 0
-0.49324909 -0.13130668 1.0308995 0
-0.24124062 -0.12870187 1.0355917 0
-0.2383416 -0.1303577 1.0303292 0
0.55563825 -0.12488019 1.0292307 0
0.99212253 -0.12980922 1.0362816 0
1.0098869 -0.129667 1.0279369 0
1.0233877 -0.13025138 1.0215163 0
-1.3748287 -0.11105572 1.03017 0
-1.312222 -0.11131027 1.0280401 0
-0.49335843 -0.10943534 1.0296824 0
-0.23819962 -0.10919217 1.0302613 0
0.5556109 -0.10892262 1.0282226 0
0.99279302 -0.11138497 1.0359901 0
1.0097184 -0.11053738 1.0280136 0
1.0239609 -0.10972437 1.0213443 0
-1.3747354 -0.090715244 1.0305285 0
-1.3117499 -0.087956436 1.0323198 0
-0.49315983 -0.089455016 1.0312467 0
-0.240022 -0.084280968 1.0359228 0
-0.23818988 -0.089040235 1.0302489 0
0.55604768 -0.090352885 1.0287033 0
0.99212664 -0.09146408 1.0366892 0
1.010088 -0.090283707 1.0280896 0
1.0234798 -0.090426974 1.0216893 0
-1.374928 -0.069888733 1.0287845 0
-1.3114675 -0.068866342 1.0292695 0
-0.49336806 -0.070302591 1.0295817 0
-0.24026433 -0.067257166 1.036092 0
-0.23828655 -0.069172509 1.0307431 0
0.5566619 -0.072583832 1.0313005 0
0.99495292 -0.070647098 1.0369776 0
1.0104048 -0.070949227 1.029325 0
1.0247835 -0.070053749 1.0223448 0
-1.3746195 -0.050971601 1.0298611 0
-1.3118178 -0.051898003 1.0298227 0
-0.49328008 -0.050334543 1.0302292 0
-0.2410692 -0.05078131 1.0382056 0
-0.23764679 -0.049854789 1.0270749 0
0.55671233 -0.047965668 1.0316699 0
0.99568313 -0.05146113 1.038214 0
1.010325 -0.050217912 1.0309411 0
1.0273087 -0.051095195 1.0221939 0
-1.3746254 -0.029040456 1.0298247 0
-1.311263 -0.031061148 1.026955 0
-0.49323368 -0.028959624 1.0304496 0
-0.23799822 -0.031293456 1.0293417 0
0.55532753 -0.029458484 1.0267034 0
0.99737012 -0.029641448 1.0387697 0
1.0095751 -0.031043312 1.0323153 0
1.026556 -0.030000348 1.0235986 0
-1.3749009 -0.0089407125 1.0287818 0
-1.3128054 -0.0069458885 1.0326569 0
-0.49331725 -0.010284686 1.0302759 0
-0.23815978 -0.0098726433 1.0301316 0
0.55462682 -0.010747194 1.0246189 0
0.99790329 -0.0096034296 1.0394843 0
1.0092797 -0.010696352 1.0334808 0
1.0267006 -0.010318 1.0244967 0
-1.3747258 0.0092514325 1.0305581 0
-1.3120073 0.010622263 1.0299883 0
-0.49321985 0.0094299754 1.0295838 0
-0.23834524 0.0091525726 1.0308284 0
0.55390602 0.0082479715 1.022568 0
0.99749058 0.0017985161 1.0399811 0
1.010077 0.010342605 1.0329491 0
1.027027 0.0097091217 1.0242348 0
-1.3748844 0.030182937 1.0295337 0
-1.3105649 0.030216886 1.0323336 0
-0.49306038 0.029695785 1.0302533 0
-0.23819116 0.028871581 1.0296868 0
0.55485284 0.032175869 1.0263915 0
0.99722975 0.030997772 1.0382079 0
1.0093867 0.028466083 1.032274 0
1.0265169 0.031493053 1.0233552 0
-1.3748589 0.049869899 1.030678 0
-1.3120525 0.050476741 1.0285057 0
-0.49309105 0.04977981 1.0301105 0
-0.24051717 0.04136312 1.0375266 0
-0.23844416 0.048400909 1.0309938 0
0.55681783 0.051480871 1.0297297 0
0.99559522 0.050960839 1.037886 0
1.0101408 0.049564883 1.030732 0
1.0264086 0.049372226 1.0224481 0
-1.3750408 0.069443256 1.0302175 0
-1.3118401 0.068952501 1.0336127 0
-0.49313495 0.069723122 1.030055 0
-0.24039571 0.064548731 1.0344417 0
-0.23827648 0.069767199 1.029807 0
0.49365664 0.069388822 1.0329636 0
0.50912899 0.07072223 1.0293473 0
0.52985138 0.070371844 1.0304838 0
0.5498789 0.070722505 1.0296277 0
0.9941662 0.071314581 1.0368714 0
1.0093372 0.070340604 1.0295606 0
1.0240149 0.068844222 1.0225111 0
-1.3750111 0.0896727 1.0301179 0
-1.3122147 0.091771871 1.0314484 0
-0.49311996 0.089857601 1.0302293 0
-0.24066354 0.086421728 1.0342126 0
-0.23858672 0.088856518 1.0301751 0
0.55605245 0.091727853 1.025359 0
0.99116653 0.090863079 1.0368111 0
1.0094342 0.089711331 1.0281454 0
1.0232859 0.089379057 1.0216095 0
-1.3748777 0.11059519 1.0296829 0
-1.3116306 0.11267245 1.0274138 0
-0.49309847 0.11000105 1.0300117 0
-0.24092671 0.10937214 1.0336263 0
-0.23868802 0.11379514 1.0285562 0
0.99199998 0.11056856 1.0359819 0
1.0104203 0.10956109 1.0274203 0
1.023734 0.10986584 1.0212425 0
-1.3750507 0.1308322 1.0295694 0
-1.3127979 0.13146941 1.0299324 0
-0.49334079 0.12968251 1.0297856 0
-0.23819876 0.12695457 1.0311029 0
0.99121898 0.12941787 1.0361371 0
1.0105944 0.13049895 1.0271159 0
1.0237321 0.13076325 1.0210912 0
-1.3751251 0.14933074 1.0303333 0
-1.3124664 0.15098237 1.0332165 0
-0.49325517 0.150516 1.0301929 0
-0.23805436 0.14863499 1.0300602 0
0.99131703 0.15061982 1.0363081 0
1.010753 0.14992903 1.026942 0
1.0219114 0.14914775 1.0217066 0
-1.3748474 0.16943465 1.0305866 0
-1.3111354 0.16632655 1.0289315 0
-0.49315807 0.17047237 1.0299832 0
-0.41566071 0.17252558 1.0286901 0
-0.23817852 0.17104602 1.0304867 0
0.99229574 0.17076854 1.0355557 0
1.0094373 0.16844477 1.0275267 0
1.022032 0.16986671 1.0214995 0
-1.3748888 0.18872949 1.0294611 0
-1.3111495 0.18840542 1.0296013 0
-0.49330786 0.1901622 1.0301762 0
-0.41576988 0.18340564 1.0258155 0
-0.23828039 0.19221297 1.0301321 0
0.99141186 0.19047326 1.0358952 0
1.0096382 0.18973964 1.0272667 0
1.0226063 0.1889479 1.0212369 0
-1.374994 0.21016651 1.0301385 0
-1.3111842 0.2096723 1.0267612 0
-0.49311858 0.21032387 1.0304182 0
-0.23779324 0.21001987 1.0277903 0
0.99097681 0.20984133 1.0357418 0
1.0098732 0.20985106 1.026984 0
1.0224447 0.20990065 1.0211585 0
-1.3749609 0.22912605 1.0298035 0
-1.312793 0.23204908 1.0327471 0
-0.49320471 0.22999948 1.0300338 0
-0.24010015 0.23186488 1.0393097 0
-0.23840097 0.22827807 1.0298945 0
0.51141793 0.23949111 1.0243051 0
0.53107649 0.23584235 1.0213978 0
0.9773826 0.23425728 1.0397435 0
0.98945862 0.22934316 1.0351293 0
1.0102515 0.23152041 1.0284189 0
1.0290098 0.23518884 1.0259883 0
1.0501534 0.23604786 1.0235984 0
1.0723099 0.23870099 1.0234001 0
1.0916693 0.2378259 1.0203516 0
-1.3748658 0.24959208 1.0313218 0
-1.3117193 0.2484217 1.0344081 0
-0.49335107 0.25107411 1.0296361 0
-0.24012017 0.25352937 1.0396191 0
-0.23839395 0.24856324 1.0297091 0
0.51001787 0.24530859 1.0324371 0
0.52617711 0.24219003 1.0306988 0
0.98593688 0.24128222 1.0392461 0
1.0115085 0.24036127 1.0362643 0
1.0302271 0.24307543 1.0361575 0
1.0503546 0.24393453 1.0341557 0
1.0705693 0.24673891 1.0351079 0
1.0894085 0.25019366 1.0285754 0
1.1015745 0.25328007 1.0206325 0
-1.374872 0.2698459 1.0297551 0
-1.3117968 0.26655179 1.0279448 0
-0.49331939 0.27045625 1.0296875 0
-0.23825118 0.26887017 1.0297993 0
0.50915408 0.27070329 1.0285295 0
1.0771296 0.26753205 1.0373101 0
1.0891358 0.27050599 1.0288197 0
1.1013026 0.26869485 1.0206838 0
-1.3748654 0.29047409 1.0306103 0
-1.3118114 0.28957665 1.0296677 0
-0.49320677 0.29020318 1.0307058 0
-0.23795417 0.28674212 1.0267696 0
0.50839156 0.29170993 1.0323783 0
1.0761979 0.28993639 1.037321 0
1.0899858 0.28966987 1.0278006 0
1.1002452 0.28052002 1.0215853 0
-1.3748432 0.30940217 1.0299492 0
-1.311182 0.30523738 1.0318309 0
-0.49315736 0.30981657 1.0296121 0
-0.24007261 0.30876076 1.0363612 0
-0.23779069 0.31253371 1.0260233 0
0.50842088 0.31096709 1.032413 0
1.0760459 0.31099635 1.0367826 0
1.0905244 0.30875146 1.0269005 0
1.1007407 0.31618789 1.0202067 0
-1.3749878 0.32958221 1.0293293 0
-1.3118523 0.32401508 1.0297366 0
-0.49297383 0.3292692 1.0310515 0
-0.23791651 0.33779237 1.0297558 0
0.51066995 0.32901141 1.0299309 0
1.0744531 0.33056566 1.0361594 0
1.0900954 0.32953006 1.026612 0
-1.3749897 0.34987018 1.0307139 0
-1.3122171 0.3472814 1.0284922 0
-0.49341071 0.35019344 1.0302529 0
-0.23880243 0.34457028 1.0275179 0
0.51449782 0.34694153 1.0309108 0
0.5300613 0.3469584 1.0292084 0
0.54887676 0.34881911 1.0315398 0
1.0718633 0.34915739 1.0356833 0
1.0885043 0.3509559 1.0264232 0
-1.3750725 0.36982566 1.0305797 0
-1.3121574 0.36893177 1.0278015 0
-0.49290988 0.37030002 1.0304558 0
-0.24076417 0.3724637 1.0382913 0
-0.23866397 0.37425455 1.0286489 0
0.55395883 0.36707205 1.0283009 0
0.56858176 0.37714922 1.030224 0
1.0695815 0.36971995 1.0350806 0
1.0890616 0.36869052 1.0243425 0
-1.3744888 0.39026842 1.030139 0
-1.310903 0.38649869 1.0298394 0
-0.49287611 0.38960949 1.0306526 0
-0.23765531 0.39458767 1.0315747 0
0.57827318 0.38139313 1.0257206 0
0.58950394 0.38616288 1.0310156 0
0.60955894 0.3954213 1.0294724 0
0.62076592 0.39897913 1.0351622 0
1.0586592 0.39471939 1.0390935 0
1.0700247 0.38958749 1.0334811 0
1.085909 0.3894242 1.0245765 0
-1.3745438 0.40980846 1.0298486 0
-1.3118012 0.4117268 1.0303457 0
-0.49292865 0.4107337 1.031864 0
-0.24056235 0.40899572 1.0354488 0
-0.23830074 0.41446829 1.0258904 0
0.63005471 0.40494028 1.029611 0
0.64670742 0.41410816 1.0281105 0
1.0581005 0.40724114 1.0386562 0
1.070063 0.41115746 1.0316274 0
1.0851364 0.40382153 1.024549 0
-1.3745167 0.4293482 1.030358 0
-1.3115591 0.43319279 1.0286307 0
-0.49334931 0.42944437 1.0297381 0
-0.2369971 0.42283061 1.0263221 0
0.62509584 0.43359554 1.0200111 0
0.65023971 0.42918068 1.0263479 0
1.0573744 0.42784366 1.0379515 0
1.0711137 0.42862284 1.0296627 0
-1.3749276 0.45024234 1.0290025 0
-1.3130944 0.45015985 1.0298195 0
-0.4935441 0.44906819 1.0290902 0
-0.24031954 0.44513494 1.0343777 0
-0.23832723 0.44883674 1.028339 0
0.62983924 0.45101461 1.0205264 0
0.65165347 0.44445801 1.0280545 0
1.0558739 0.44988653 1.0374211 0
1.0634694 0.44796497 1.0300817 0
-1.3749608 0.47065303 1.0300559 0
-1.3126223 0.46725279 1.0294404 0
-0.49355468 0.46866333 1.0297499 0
-0.41554809 0.46910414 1.0289936 0
-0.23740757 0.46890509 1.0256821 0
0.63330948 0.4606427 1.0203176 0
1.0314889 0.47676519 1.036104 0
1.0506425 0.46778303 1.0327227 0
-1.3749167 0.49010938 1.0306454 0
-1.3135478 0.49573028 1.0296526 0
-0.49363515 0.49039727 1.0288706 0
-0.41559744 0.4901323 1.0318136 0
-0.24060492 0.48356032 1.0353532 0
-0.23783979 0.48827028 1.0277246 0
0.97743869 0.49875486 1.0379297 0
0.99015754 0.49641082 1.0343006 0
1.0084538 0.49256557 1.028041 0
1.0304549 0.48337168 1.0278689 0
-1.3747854 0.51058489 1.0296309 0
-1.3105841 0.51038265 1.0342599 0
-0.49346283 0.51072806 1.0302082 0
-0.41518822 0.51138693 1.0282447 0
-0.23838684 0.50934708 1.0301801 0
0.9553895 0.51318282 1.034925 0
0.96972996 0.50890666 1.0321223 0
0.98656619 0.50534856 1.0251529 0
-1.3744415 0.53007245 1.0297883 0
-1.3127626 0.53177869 1.0310144 0
-0.49329537 0.53202158 1.0309331 0
-0.41529316 0.52976567 1.0274453 0
-0.24120399 0.52367783 1.038851 0
-0.23823212 0.52881604 1.0280848 0
0.5589655 0.53015077 1.0203855 0
0.5626682 0.53105915 1.0306356 0
0.91582251 0.53630048 1.0338916 0
0.93011653 0.53054363 1.0313396 0
0.94542265 0.52571368 1.0270374 0
-1.3748741 0.54981196 1.0300314 0
-1.3095493 0.54592222 1.0311996 0
-1.2929176 0.55888224 1.0291051 0
-0.49335074 0.55081791 1.0295609 0
-0.41587725 0.54746014 1.0327489 0
-0.23791663 0.55302346 1.0302825 0
0.55807132 0.54766285 1.0240631 0
0.56176043 0.54861856 1.0318984 0
0.8712613 0.55326027 1.0352089 0
0.89143419 0.55103105 1.0285294 0
0.90594214 0.54750079 1.0260873 0
0.92579675 0.5426423 1.0238814 0
-1.3746892 0.56958985 1.0301309 0
-1.3089144 0.56383878 1.0295882 0
-1.2815949 0.5609951 1.02957 0
-1.2701727 0.57058114 1.0293256 0
-0.49291846 0.57130367 1.0314504 0
-0.41445011 0.57288569 1.0290809 0
-0.30387312 0.57713121 1.0322468 0
-0.29147369 0.57670712 1.030001 0
-0.2696355 0.57674378 1.0289741 0
-0.2499553 0.57105303 1.0312029 0
-0.23885795 0.56216997 1.0233786 0
0.55876368 0.57055378 1.022045 0
0.56301057 0.56923175 1.0316185 0
0.81632614 0.57517076 1.0397676 0
0.83073902 0.57573628 1.0360845 0
0.84901208 0.569691 1.0324733 0
0.86665165 0.56756669 1.0270451 0
0.88439804 0.5677222 1.0212269 0
-1.3760003 0.58953702 1.0285362 0
-1.2654974 0.59469533 1.028859 0
-1.2474654 0.59406227 1.0292271 0
-1.2315421 0.59427869 1.0322136 0
-1.2084899 0.59517676 1.0281937 0
-1.1922143 0.59667218 1.0278914 0
-1.1791587 0.59539461 1.0291039 0
-1.0497129 0.5941112 1.0361121 0
-1.0265263 0.59555519 1.0317919 0
-1.0098718 0.594935 1.0318302 0
-0.98982728 0.59506005 1.0290622 0
-0.96879655 0.59519064 1.0279974 0
-0.95140439 0.59564686 1.0286701 0
-0.93051493 0.59565586 1.0324219 0
-0.91007978 0.59494948 1.0295652 0
-0.89043438 0.59509331 1.0314709 0
-0.87194943 0.59510267 1.0294045 0
-0.85345644 0.59491068 1.0275021 0
-0.83342659 0.59542096 1.0293633 0
-0.81130761 0.59544861 1.0311689 0
-0.78985375 0.59566206 1.0297129 0
-0.76971292 0.59506685 1.0278226 0
-0.7483387 0.59429055 1.0286427 0
-0.72927874 0.59503245 1.0305983 0
-0.71123922 0.59517169 1.0312223 0
-0.68792915 0.59477121 1.0302316 0
-0.66846365 0.59422553 1.0327916 0
-0.6511628 0.59373736 1.0276219 0
-0.6304096 0.5948627 1.0298978 0
-0.60927296 0.5952512 1.0295036 0
-0.59170038 0.59564519 1.0302603 0
-0.57617509 0.5959968 1.0284313 0
-0.55343086 0.59634727 1.0272238 0
-0.53033495 0.59596902 1.0318711 0
-0.51646155 0.59307116 1.0260763 0
-0.49367338 0.58886665 1.0287126 0
-0.41409856 0.5937193 1.0260005 0
-0.31696355 0.59046018 1.0275943 0
0.56377685 0.59042221 1.0304381 0
0.79681087 0.59527659 1.0379782 0
0.81140643 0.59270453 1.0366415 0
0.83005726 0.59076411 1.030905 0
0.85104346 0.58654696 1.026283 0
0.86324239 0.58620107 1.0217206 0
-1.3778944 0.610493 1.0303352 0
-0.41443092 0.61028481 1.0309234 0
-0.36128336 0.61327422 1.0207419 0
-0.35977811 0.61943156 1.0335134 0
-0.3092556 0.61006862 1.0270901 0
0.56466365 0.61183947 1.0313947 0
0.77799094 0.61124796 1.0384791 0
0.79257029 0.61019379 1.0344921 0
0.81114388 0.61175936 1.0294784 0
0.82725447 0.60928857 1.0250326 0
0.84447038 0.60677791 1.0218377 0
-1.3783002 0.62895274 1.0290449 0
-0.41537419 0.62892604 1.0303141 0
-0.34714845 0.63354272 1.0299269 0
-0.32917565 0.63473642 1.0307844 0
-0.31604069 0.62643754 1.0286129 0
0.56864756 0.63044959 1.0318925 0
0.75363952 0.637577 1.0380759 0
0.76747257 0.63328308 1.0324267 0
0.78796607 0.62675649 1.0285422 0
0.80815321 0.62942088 1.0229152 0
0.83128858 0.62227315 1.0202022 0
-1.3767643 0.65028858 1.0306814 0
-0.75211692 0.65905291 1.0391197 0
-0.72517467 0.65953898 1.0368968 0
-0.71210515 0.65856647 1.0381474 0
-0.6891135 0.65873194 1.035267 0
-0.66923767 0.65859842 1.0339994 0
-0.64879489 0.65870214 1.030947 0
-0.62943345 0.65870017 1.0305895 0
-0.60792065 0.65821958 1.0297297 0
-0.58996147 0.65879506 1.0308841 0
-0.57022154 0.65819627 1.0288478 0
-0.54948628 0.6587019 1.0313127 0
-0.52929157 0.65845013 1.0307068 0
-0.51024789 0.65849781 1.03142 0
-0.48885447 0.65859848 1.0292588 0
-0.47043037 0.65820909 1.0312057 0
-0.4504194 0.65824896 1.0304879 0
-0.42913043 0.65853488 1.0292206 0
-0.41663024 0.6521281 1.03312 0
0.57486743 0.64713788 1.0294257 0
0.58494294 0.6548714 1.0312743 0
0.71081591 0.65720201 1.0373024 0
0.72835958 0.65460652 1.0324509 0
0.74962807 0.64845401 1.0322386 0
0.76853925 0.64894569 1.0251791 0
0.78381842 0.64314806 1.0225959 0
-1.3733733 0.66022515 1.0327067 0
-1.2195703 0.67992413 1.0278159 0
-1.0059395 0.67953473 1.0226841 0
-0.9495939 0.67781794 1.0377038 0
-0.92891037 0.67726755 1.0348392 0
-0.90847719 0.67387867 1.0360321 0
-0.88884223 0.67480272 1.0328182 0
-0.87308604 0.67355812 1.0328412 0
-0.85002291 0.67357218 1.0294452 0
-0.82958078 0.67103195 1.0300336 0
-0.80971658 0.67016667 1.029186 0
-0.78987056 0.6676144 1.0300434 0
-0.77071655 0.66669548 1.0299582 0
-0.74990845 0.66669935 1.0275234 0
-0.73094147 0.66501856 1.0282786 0
-0.7089622 0.66435719 1.0268387 0
-0.68819404 0.66323262 1.0256259 0
-0.67225957 0.66186631 1.025504 0
-0.65433156 0.66188532 1.0214185 0
-0.63454098 0.66015244 1.0219564 0
0.59309775 0.66465008 1.0277958 0
0.60654283 0.67009711 1.0292379 0
0.62979722 0.67085338 1.0285107 0
0.65136027 0.66792375 1.0308834 0
0.66877717 0.66704291 1.0292641 0
0.68759263 0.66449916 1.0318711 0
0.70865494 0.6617378 1.0293937 0
0.72894347 0.66023195 1.0222143 0
-1.3303516 0.68138707 1.0222586 0
-1.3099334 0.68279529 1.030651 0
-1.2884229 0.68182921 1.0303031 0
-1.2681109 0.68161082 1.0285089 0
-1.2514544 0.68028194 1.0301409 0
-1.2328806 0.68182468 1.0306044 0
-1.2061963 0.68178654 1.0343637 0
-1.1904162 0.68190515 1.0261686 0
-1.1685921 0.6827327 1.0285115 0
-1.1481135 0.68165648 1.0264543 0
-1.1297376 0.68309677 1.03234 0
-1.1081072 0.68338382 1.0298176 0
-1.0896045 0.68288088 1.0291351 0
-1.0716617 0.68221378 1.0306751 0
-1.0528107 0.68230295 1.0282083 0
-1.0298303 0.68253279 1.0296452 0
-1.0085639 0.68213177 1.0351145 0
-0.98839206 0.68244022 1.0287999 0
-0.96952981 0.68145716 1.029774 0
-0.94621438 0.68190211 1.0295005 0
-0.92987871 0.6821928 1.0259538 0
-0.90415972 0.68180037 1.026328 0
-0.88943201 0.68136108 1.0250566 0
-0.8607136 0.68120712 1.0220578 0
-1.3003153 -0.68066567 1.0431651 0
-1.2873591 -0.68153512 1.0514257 0
-1.2675399 -0.68166262 1.0546471 0
-1.2521553 -0.68404514 1.042752 0
-1.232725 -0.6826517 1.0489742 0
-1.2155861 -0.68153769 1.0432489 0
-1.1928291 -0.68286598 1.0474378 0
-1.1746552 -0.68227869 1.045866 0
-1.1532338 -0.6823504 1.0471987 0
-1.131496 -0.68154585 1.04952 0
-1.106281 -0.68409216 1.0420954 0
-1.0938876 -0.68154192 1.0457253 0
-1.0708568 -0.6826154 1.0454564 0
-1.0513129 -0.6814546 1.0481837 0
-1.0327876 -0.68142748 1.0466353 0
-1.0099034 -0.68229818 1.042447 0
-0.99045455 -0.68082601 1.0423586 0
-1.3163819 -0.6797902 1.0434794 0
-1.2701848 -0.67971629 1.0579479 0
-1.2566121 -0.67954868 1.057687 0
-1.2127768 -0.67796707 1.0542804 0
-1.1970497 -0.67507291 1.0587158 0
-1.1680217 -0.67747319 1.0562366 0
-1.1493318 -0.67625606 1.0546694 0
-1.1306218 -0.67477894 1.0584559 0
-1.1092584 -0.67592669 1.0555857 0
-1.0815134 -0.67909241 1.0497811 0
-1.0676875 -0.67646801 1.0541987 0
-1.0501198 -0.67422342 1.0556056 0
-1.030426 -0.67501026 1.0556444 0
-1.0091503 -0.67488497 1.0513729 0
-0.98945326 -0.67376101 1.0501764 0
-0.96923035 -0.67102331 1.0505759 0
-0.94897509 -0.66932911 1.0504799 0
-0.92951483 -0.66738921 1.0501436 0
-0.91071397 -0.66611159 1.0501561 0
-0.89014673 -0.66538322 1.0479065 0
-0.87071812 -0.66486043 1.0469415 0
-0.8491413 -0.66310394 1.048063 0
-0.82891452 -0.66218793 1.0461918 0
-0.81085891 -0.66213048 1.0443377 0
-0.78916556 -0.6616596 1.0427542 0
-0.77767318 -0.66041911 1.0432742 0
-0.75974953 -0.66071928 1.040314 0
-0.60964912 -0.66003937 1.0508394 0
-0.57061678 -0.66010338 1.043547 0
-0.52250767 -0.6600033 1.053221 0
0.59999204 -0.66320252 1.0434941 0
0.61120141 -0.66681099 1.0495983 0
0.63103235 -0.66708779 1.0508778 0
0.65057081 -0.66580319 1.0462923 0
0.66877806 -0.66361588 1.0436623 0
0.68923157 -0.66141605 1.0413682 0
-1.375193 -0.6504544 1.0501096 0
-1.354429 -0.65735453 1.0497421 0
-1.333463 -0.65980643 1.0571269 0
-0.89431429 -0.65858895 1.0584457 0
-0.86449164 -0.65854013 1.0562757 0
-0.84613323 -0.65842515 1.0553861 0
-0.8346594 -0.65796286 1.0580666 0
-0.81061333 -0.65843123 1.0532066 0
-0.78972542 -0.65826219 1.0533553 0
-0.7695719 -0.65830559 1.0487566 0
-0.75121111 -0.65852582 1.0506164 0
-0.73014939 -0.65877169 1.0502646 0
-0.70938492 -0.658198 1.0491478 0
-0.68726361 -0.65850723 1.049468 0
-0.66874647 -0.65800697 1.0494146 0
-0.65002429 -0.65846181 1.0490291 0
-0.63041115 -0.65807533 1.0514667 0
-0.60914922 -0.65881389 1.0477623 0
-0.59137994 -0.65865707 1.0535687 0
-0.56952918 -0.65886396 1.0454628 0
-0.55098426 -0.65865707 1.0506662 0
-0.53012764 -0.65855056 1.0493453 0
-0.50948942 -0.65838689 1.0512569 0
-0.4885543 -0.65834421 1.0500845 0
-0.47042924 -0.65890843 1.0513406 0
-0.4498077 -0.6584363 1.0502633 0
-0.42926991 -0.65866721 1.0492909 0
-0.41798517 -0.65066707 1.0494716 0
0.59076917 -0.6501084 1.0485861 0
0.60302818 -0.65706778 1.0561094 0
0.62991965 -0.65823615 1.0581968 0
0.65033793 -0.65120411 1.0562363 0
0.67088044 -0.65006411 1.0512241 0
0.68878388 -0.64909446 1.0465877 0
0.70927918 -0.64803976 1.0441459 0
0.72670519 -0.64489746 1.0414973 0
-1.3755141 -0.6295864 1.0507374 0
-0.41739929 -0.63208532 1.0484123 0
-0.34833997 -0.63543975 1.0509851 0
-0.32777634 -0.63229102 1.0507424 0
-0.31864035 -0.62367749 1.0480967 0
0.57692206 -0.62605631 1.0483787 0
0.58329874 -0.6339131 1.0535167 0
0.67501664 -0.63690388 1.0576208 0
0.69474435 -0.6337322 1.0558746 0
0.70943183 -0.63621753 1.0542047 0
0.72814929 -0.63645858 1.0491557 0
0.74841017 -0.62950337 1.0497494 0
0.76190656 -0.62695074 1.0409353 0
-1.3756371 -0.60971302 1.0505202 0
-0.41816655 -0.60929888 1.0511788 0
-0.31382731 -0.60994875 1.0499735 0
0.57245183 -0.60932666 1.0493765 0
0.58131647 -0.61727583 1.059577 0
0.75635356 -0.61293697 1.0564914 0
0.76688313 -0.60975724 1.0466226 0
0.78537571 -0.60332555 1.0412521 0
-1.3738325 -0.59121281 1.0501999 0
-1.2655023 -0.58953011 1.0498462 0
-1.2513539 -0.59559882 1.0496126 0
-1.2332431 -0.59403735 1.0519116 0
-1.2128382 -0.59496272 1.0517462 0
-1.1865404 -0.59468961 1.0471019 0
-1.1662879 -0.59531027 1.0474319 0
-1.1495101 -0.59526658 1.0493217 0
-1.1328554 -0.59523779 1.0511934 0
-1.1106436 -0.59483105 1.0537926 0
-1.0905178 -0.59443796 1.0531287 0
-1.0657643 -0.59474772 1.0498939 0
-1.0488223 -0.59468788 1.0490956 0
-1.0305429 -0.59427452 1.0502568 0
-1.0134172 -0.59553856 1.0495324 0
-0.99202657 -0.5951575 1.0501449 0
-0.96975243 -0.59492624 1.0506797 0
-0.9493677 -0.59522408 1.049909 0
-0.93003613 -0.59512913 1.0514574 0
-0.91022003 -0.59396911 1.048016 0
-0.88928282 -0.59433603 1.0470192 0
-0.86987913 -0.59476918 1.0476302 0
-0.8503176 -0.59499514 1.0501945 0
-0.82793343 -0.59498572 1.0529222 0
-0.80829442 -0.59502965 1.0509533 0
-0.79188675 -0.59422821 1.0468616 0
-0.77287704 -0.59434664 1.0518892 0
-0.75510359 -0.59467566 1.0505776 0
-0.73304909 -0.59495372 1.0519204 0
-0.71151847 -0.59520757 1.0501723 0
-0.68926072 -0.59554529 1.048367 0
-0.66574985 -0.59555197 1.0491877 0
-0.64805847 -0.59565723 1.0508409 0
-0.62970221 -0.59504092 1.0490487 0
-0.61212015 -0.59505779 1.050406 0
-0.59079349 -0.59507298 1.0496044 0
-0.57239622 -0.59493381 1.050909 0
-0.55065602 -0.59498489 1.0494976 0
-0.52868176 -0.59605634 1.05329 0
-0.50529796 -0.59607303 1.050349 0
-0.49109209 -0.58867359 1.0509944 0
-0.41776636 -0.59011722 1.0488198 0
0.57154822 -0.58911502 1.0506018 0
0.77158636 -0.59247202 1.0521672 0
0.79067212 -0.5894081 1.0447628 0
0.80442411 -0.58687001 1.0420004 0
-1.3735524 -0.57017154 1.0503485 0
-1.2904899 -0.56019843 1.0490279 0
-1.2676684 -0.56090522 1.0512885 0
-0.49114424 -0.5683732 1.0492965 0
-0.41791803 -0.56867135 1.0513426 0
-0.30463123 -0.57736701 1.0505384 0
-0.28922758 -0.57678729 1.0500515 0
-0.26990122 -0.5770697 1.0495918 0
-0.25151628 -0.56903172 1.0503497 0
0.57032895 -0.57063085 1.0485559 0
0.77734232 -0.5782696 1.0575964 0
0.79172188 -0.57534218 1.0533867 0
0.80942631 -0.57051194 1.0498316 0
0.82778788 -0.56683761 1.0451962 0
0.84634817 -0.56143135 1.0421828 0
-1.3727331 -0.54985482 1.0504729 0
-1.3063759 -0.55725104 1.0481393 0
-1.2782288 -0.55906546 1.0506644 0
-0.49069965 -0.55062944 1.0511577 0
-0.41736016 -0.55093986 1.0501585 0
-0.24198319 -0.55181509 1.0495735 0
0.56913805 -0.55176169 1.0483638 0
0.82864225 -0.5558846 1.0561025 0
0.85092402 -0.55084288 1.0500798 0
0.86973226 -0.5451023 1.0485084 0
0.88560742 -0.54431129 1.0421602 0
-1.372852 -0.52951008 1.049709 0
-1.309623 -0.53177756 1.0491538 0
-0.49067983 -0.53037649 1.0494232 0
-0.24218874 -0.53048283 1.0504124 0
0.57194382 -0.53075123 1.0501493 0
0.87338555 -0.53754604 1.0554535 0
0.89335507 -0.53290921 1.0510148 0
0.90953392 -0.52680713 1.0497041 0
0.92958808 -0.52273357 1.0445868 0
-1.3728415 -0.50909799 1.0502595 0
-1.3129516 -0.51743984 1.0527892 0
-0.49089712 -0.51148361 1.0505162 0
-0.24198568 -0.50942361 1.0509642 0
-0.23987962 -0.50799918 1.04344 0
0.91376245 -0.51740444 1.0591669 0
0.93269444 -0.51316857 1.0538902 0
0.94878733 -0.5087024 1.0494049 0
0.96694088 -0.50296521 1.0439935 0
-1.3727385 -0.48950884 1.0498759 0
-1.3109424 -0.49369502 1.0539253 0
-0.49120378 -0.490585 1.0501962 0
-0.24218856 -0.48769903 1.0512594 0
-0.23975202 -0.49740195 1.0420191 0
0.95426404 -0.49872017 1.0563196 0
0.97395623 -0.49288675 1.0540544 0
0.99118507 -0.48653826 1.0506299 0
1.0065571 -0.48540896 1.0438143 0
-1.3733462 -0.47029731 1.0506154 0
-1.3142774 -0.4791404 1.0495936 0
-0.49058008 -0.46976075 1.0510908 0
-0.24200925 -0.46825546 1.0515662 0
-0.23965731 -0.47204229 1.0409517 0
0.993164 -0.47212091 1.0571967 0
1.0104586 -0.46831638 1.0514892 0
1.0269959 -0.46879253 1.0457224 0
1.0453653 -0.46331355 1.0407197 0
-1.3733488 -0.44917262 1.049059 0
-1.3122452 -0.45584691 1.048393 0
-0.49118304 -0.44961706 1.0491427 0
-0.2419436 -0.45166585 1.0500138 0
-0.23942766 -0.44424319 1.041816 0
0.99563724 -0.45045826 1.0576009 0
1.0092876 -0.45222172 1.0533575 0
1.0309486 -0.44797567 1.0470157 0
1.0456824 -0.44969019 1.0421523 0
-1.3730522 -0.43106651 1.0498848 0
-1.3117254 -0.42676461 1.0566505 0
-0.49079329 -0.43021438 1.0509259 0
-0.41794693 -0.42434734 1.0542428 0
-0.2421459 -0.43141925 1.0506681 0
0.6501922 -0.42569757 1.0499279 0
0.9978447 -0.42895555 1.0589597 0
1.0104984 -0.42981294 1.0554311 0
1.0290309 -0.42996165 1.0497158 0
1.0486714 -0.42910829 1.0435815 0
-1.3728324 -0.41101694 1.0504336 0
-1.312757 -0.40795383 1.0580257 0
-0.49125704 -0.41001007 1.0494561 0
-0.41715145 -0.40872353 1.0460966 0
-0.2419892 -0.40999788 1.0506048 0
-0.2398622 -0.41511008 1.0408852 0
0.63182944 -0.40530822 1.0509491 0
0.64547062 -0.41294047 1.049659 0
1.0117807 -0.41043031 1.057079 0
1.0294281 -0.40961093 1.0518019 0
1.0488647 -0.40909088 1.0446216 0
-1.3731737 -0.38886571 1.0501771 0
-1.3118808 -0.38929617 1.0513062 0
-0.49094477 -0.38902694 1.0491836 0
-0.41857037 -0.3961719 1.0501559 0
-0.24208996 -0.38881606 1.0494782 0
0.57752526 -0.38126993 1.0428431 0
0.59125054 -0.38579664 1.0493777 0
0.61007869 -0.39415726 1.0503137 0
0.62125719 -0.39983332 1.05022 0
1.0143605 -0.39187327 1.0583918 0
1.0302943 -0.39018372 1.0531319 0
1.0508943 -0.38967046 1.045132 0
-1.3729131 -0.37015805 1.0503612 0
-1.3119166 -0.36704883 1.0481713 0
-0.49112761 -0.36962578 1.0496042 0
-0.24199465 -0.36754498 1.0503185 0
-0.23887514 -0.37785482 1.0407281 0
0.55890036 -0.36363745 1.0497465 0
0.56779355 -0.37397602 1.0508623 0
0.58058298 -0.37959009 1.055351 0
1.0180222 -0.36940601 1.0590885 0
1.0309514 -0.36974427 1.0547135 0
1.0501325 -0.37031534 1.046713 0
1.0623436 -0.36148101 1.0409108 0
-1.3732558 -0.350961 1.0501674 0
-1.3120954 -0.34794208 1.0494283 0
-0.49083745 -0.35064691 1.0505558 0
-0.24233824 -0.34905443 1.0514275 0
0.55675095 -0.35219535 1.0497237 0
1.0132627 -0.35785306 1.0586455 0
1.0308511 -0.35121956 1.0566362 0
1.0513471 -0.34953925 1.0481157 0
1.0635455 -0.34719324 1.0416151 0
-1.373003 -0.33029652 1.0497669 0
-1.3117667 -0.3308517 1.0503485 0
-0.49100506 -0.33011967 1.0494626 0
-0.24195272 -0.33245194 1.0492356 0
0.55537415 -0.33188879 1.049438 0
1.0328069 -0.32995898 1.0572348 0
1.050002 -0.33014071 1.0504549 0
1.0647163 -0.32887965 1.0427096 0
-1.3730818 -0.31019548 1.050529 0
-1.3122081 -0.30841264 1.0527422 0
-0.49101597 -0.30947846 1.0496161 0
-0.24196312 -0.31164384 1.0500288 0
-0.23998618 -0.30591384 1.0407581 0
0.55508 -0.31179854 1.0504929 0
1.035434 -0.31236878 1.0583354 0
1.0502827 -0.30956632 1.0520657 0
1.0661541 -0.30984101 1.0436896 0
-1.3729488 -0.28944671 1.049449 0
-1.3128914 -0.28978083 1.050137 0
-0.49118522 -0.28945151 1.0494456 0
-0.24190612 -0.29050902 1.0497917 0
0.55426008 -0.29146576 1.05076 0
1.0375369 -0.29326844 1.0587422 0
1.0500405 -0.2901758 1.054353 0
1.0664346 -0.28947097 1.0447069 0
-1.3732321 -0.27023381 1.050318 0
-1.3115624 -0.27053764 1.0461792 0
-0.49068499 -0.26978374 1.0504053 0
-0.24187495 -0.26915762 1.0497413 0
-0.23959273 -0.27156657 1.0409602 0
0.55022669 -0.26812488 1.0509087 0
1.0399458 -0.27846125 1.0598736 0
1.0520983 -0.26998591 1.0550666 0
1.067158 -0.26963061 1.0445813 0
-1.3731354 -0.24984185 1.0498933 0
-1.3114077 -0.24781615 1.0494766 0
-0.49079326 -0.2506687 1.0500276 0
-0.24177313 -0.24831937 1.0502753 0
-0.23970041 -0.247527 1.0403087 0
0.53793788 -0.24887885 1.0457493 0
0.54218155 -0.25207138 1.0540032 0
0.93628377 -0.24570712 1.057745 0
0.94930226 -0.24754286 1.0534037 0
0.96868604 -0.2484694 1.0499184 0
0.99097586 -0.25082022 1.0507548 0
1.0101556 -0.25205562 1.0509624 0
1.0299147 -0.25256836 1.0495366 0
1.0495089 -0.25395048 1.0498345 0
1.0678234 -0.25439051 1.0442731 0
-1.3728756 -0.23058973 1.050054 0
-1.3119099 -0.22573793 1.0574094 0
-0.49089757 -0.23060611 1.0493157 0
-0.24211916 -0.22806419 1.0509899 0
0.5391199 -0.23262422 1.0441731 0
0.54325086 -0.23028627 1.0554202 0
0.93710566 -0.23172341 1.0590819 0
0.9499374 -0.22998686 1.053515 0
0.9689635 -0.22958958 1.0449219 0
0.98076403 -0.2246608 1.0402553 0
-1.3731415 -0.21019903 1.0506182 0
-1.3130977 -0.21047537 1.0536215 0
-0.49068892 -0.20988178 1.0505604 0
-0.24186784 -0.2100438 1.0501964 0
0.53975433 -0.21594584 1.0419412 0
0.54307181 -0.21089335 1.0494405 0
0.95205569 -0.2100516 1.0550597 0
0.97073877 -0.20983499 1.0459182 0
0.98076463 -0.21039727 1.0412202 0
-1.3729969 -0.19016548 1.0503739 0
-1.312479 -0.18913674 1.050447 0
-0.49074656 -0.19004977 1.0496396 0
-0.24172598 -0.19212671 1.0495143 0
-0.23940071 -0.19715297 1.0423669 0
0.54488117 -0.1894729 1.0513996 0
0.9533751 -0.18950191 1.0549066 0
0.96960819 -0.19001013 1.0467997 0
0.98182797 -0.18880674 1.0409988 0
-1.372834 -0.16981436 1.0499014 0
-1.3130231 -0.16541772 1.0517172 0
-0.49094215 -0.16966051 1.0502076 0
-0.24188355 -0.17125168 1.0498753 0
0.54569656 -0.16856448 1.0503012 0
0.95346719 -0.17033988 1.0550467 0
0.97067875 -0.17002557 1.0464793 0
0.98271716 -0.16780275 1.0407333 0
-1.3726678 -0.15054715 1.0505081 0
-1.3109953 -0.14953557 1.0492376 0
-0.49095964 -0.14931652 1.0498887 0
-0.24186155 -0.14933349 1.0499845 0
0.95253479 -0.15062846 1.0555989 0
0.96996635 -0.15013935 1.0468286 0
0.98213995 -0.15279356 1.0411006 0
-1.3728979 -0.13047019 1.0498344 0
-1.3132379 -0.13122909 1.0506485 0
-0.49087334 -0.12923983 1.050025 0
-0.24191079 -0.12870799 1.0510658 0
-0.23993155 -0.12668917 1.0418174 0
0.55882913 -0.1297507 1.0451604 0
0.56125635 -0.13225758 1.054376 0
0.95326799 -0.12940414 1.0551579 0
0.97028375 -0.12872855 1.0467474 0
0.98198432 -0.13425644 1.0410928 0
-1.373029 -0.10924956 1.0501139 0
-1.3123149 -0.10919041 1.047595 0
-0.49098063 -0.11048238 1.050804 0
-0.24179952 -0.10901035 1.050617 0
-0.23999524 -0.11725861 1.0404826 0
0.55861676 -0.11414427 1.0428922 0
0.56147116 -0.10940671 1.0532103 0
0.9528839 -0.10860199 1.055333 0
0.97029406 -0.10953949 1.0467892 0
0.9826259 -0.1095918 1.0408452 0
-1.3731399 -0.090681098 1.049919 0
-1.3112918 -0.086861223 1.0505497 0
-0.49108088 -0.088530198 1.0498689 0
-0.2417288 -0.089532837 1.0500921 0
-0.2399404 -0.091410294 1.0401802 0
0.55931091 -0.089843869 1.0431626 0
0.56220335 -0.089472532 1.0551229 0
0.9537347 -0.089951918 1.0561705 0
0.9695366 -0.090191968 1.0480824 0
0.98183775 -0.087955303 1.042084 0
-1.3732039 -0.068494 1.0500818 0
-1.3126904 -0.069395684 1.0528623 0
-0.49087635 -0.0698983 1.050933 0
-0.24195546 -0.069411382 1.0511969 0
-0.23994994 -0.075977191 1.0402139 0
0.55923176 -0.069880247 1.0414171 0
0.56160736 -0.069485664 1.0510124 0
0.9558683 -0.070576854 1.0567855 0
0.96975523 -0.070037082 1.0497172 0
0.98450458 -0.068668149 1.0423788 0
-1.3731703 -0.049904905 1.0508476 0
-1.3117343 -0.047982201 1.0526934 0
-0.49091655 -0.050030477 1.0507234 0
-0.24194936 -0.049131196 1.0513254 0
-0.23902903 -0.048534274 1.0429063 0
0.55536968 -0.048386037 1.0404983 0
0.56213492 -0.048321556 1.05301 0
0.95542705 -0.051633231 1.0582923 0
0.97087759 -0.050020684 1.0508758 0
0.98639482 -0.050405834 1.0429718 0
-1.37321 -0.02947833 1.0504149 0
-1.311184 -0.0323627 1.0490546 0
-0.49108395 -0.029491758 1.0500625 0
-0.2416736 -0.032028049 1.0498003 0
-0.23947109 -0.022590041 1.0416011 0
0.53972834 -0.026845217 1.0450312 0
0.54891163 -0.037679434 1.0521865 0
0.56083113 -0.039948583 1.0507208 0
0.96940595 -0.031146258 1.0532267 0
0.98706609 -0.028764242 1.0442514 0
-1.37315 -0.0099911531 1.0508521 0
-1.3125504 -0.012293492 1.0498528 0
-0.49093956 -0.010255014 1.0500559 0
-0.24185216 -0.010471907 1.0506067 0
-0.23995045 -0.011475957 1.0414622 0
0.5417881 -0.015753191 1.0550108 0
0.95705497 -0.005789578 1.0593998 0
0.96872956 -0.0099420333 1.0549775 0
0.98606801 -0.0099895578 1.0457072 0
-1.3731372 0.010929805 1.0499015 0
-1.3110775 0.0080488622 1.0510261 0
-0.49088001 0.010110371 1.0500555 0
-0.24185844 0.010348616 1.0504194 0
0.95980322 0.015726637 1.0590465 0
0.9701066 0.0095397811 1.0540917 0
0.98918486 0.010017592 1.04392 0
-1.3730571 0.029919088 1.0499021 0
-1.3114285 0.026934404 1.0506136 0
-0.49088222 0.029878527 1.0502743 0
-0.24169272 0.031012032 1.0491837 0
0.95625609 0.030403163 1.0595883 0
0.96955705 0.030484611 1.0527955 0
0.98773789 0.029851954 1.043515 0
-1.3728756 0.050561436 1.050297 0
-1.3112955 0.047759138 1.0502434 0
-0.49070764 0.050117191 1.0504993 0
-0.24196254 0.050574467 1.0500617 0
0.56156796 0.050374012 1.0488517 0
0.95694202 0.049314898 1.0575159 0
0.96942693 0.050079912 1.0511122 0
0.98532104 0.048275039 1.0432351 0
-1.3726854 0.070829965 1.0503501 0
-1.3123076 0.066631317 1.0498869 0
-0.49076307 0.070037313 1.0496964 0
-0.24222331 0.06823685 1.0516164 0
-0.23862088 0.061064482 1.040856 0
0.48965779 0.066646799 1.0502295 0
0.51156032 0.066444293 1.0489802 0
0.52928537 0.070042819 1.050181 0
0.54809391 0.068255663 1.0494931 0
0.56264162 0.063180268 1.0580635 0
0.95390236 0.069286123 1.0572571 0
0.97003901 0.070678398 1.0489385 0
0.98463714 0.068273917 1.0418463 0
-1.3727562 0.090170622 1.0495729 0
-1.3118589 0.093147203 1.052258 0
-0.49064237 0.090120621 1.0509812 0
-0.24201386 0.087972663 1.0499538 0
0.95179486 0.090121746 1.0562145 0
0.97010541 0.089518838 1.0471994 0
0.98260939 0.087572053 1.0413327 0
-1.3729159 0.1102418 1.0504169 0
-1.3110769 0.11357945 1.0484724 0
-0.49080217 0.11017732 1.0496255 0
-0.24171767 0.10845079 1.0498279 0
-0.2399489 0.11398441 1.0438058 0
0.95153862 0.10906047 1.0553354 0
0.96959043 0.10993841 1.0466104 0
0.98137087 0.11185734 1.040987 0
-1.3730937 0.1301516 1.0503752 0
-1.3123034 0.12922978 1.0465392 0
-0.49069107 0.12960643 1.0501541 0
-0.24180999 0.13147077 1.05073 0
-0.23959918 0.13986206 1.0438453 0
0.56120902 0.13440955 1.0595124 0
0.95269334 0.13116619 1.0552835 0
0.97075009 0.12867159 1.0456316 0
0.98220754 0.13010654 1.0404457 0
-1.3728604 0.15131964 1.0499107 0
-1.312562 0.15267865 1.0528454 0
-0.49082059 0.14921124 1.0508322 0
-0.24189928 0.15195657 1.0514779 0
-0.23996425 0.1454953 1.0404721 0
0.55500555 0.15574531 1.0558145 0
0.5600881 0.1492095 1.0588384 0
0.9524942 0.15108232 1.0548985 0
0.97021943 0.14966236 1.0461358 0
0.98212141 0.14477196 1.0407368 0
-1.3730872 0.17031403 1.0494245 0
-1.31218 0.16927385 1.0521533 0
-0.4908835 0.16907878 1.0501028 0
-0.41754305 0.16934437 1.0531607 0
-0.24152228 0.17106308 1.0490063 0
-0.23989624 0.16653442 1.04225 0
0.54733455 0.16566563 1.0559397 0
0.9537307 0.16902331 1.0540082 0
0.96961379 0.16970882 1.0463934 0
0.9814927 0.16721098 1.0408968 0
-1.3731382 0.19011487 1.0497733 0
-1.311511 0.19161104 1.0503939 0
-0.49069268 0.18916188 1.0504292 0
-0.41788673 0.19314067 1.050689 0
-0.24185838 0.18879557 1.0506957 0
0.95281398 0.18867998 1.0547603 0
0.97052211 0.18950678 1.0457946 0
0.98187822 0.18810314 1.0405909 0
-1.372752 0.21042858 1.050467 0
-1.3116907 0.21411714 1.0493598 0
-0.49085501 0.20920102 1.0503411 0
-0.24182396 0.20812196 1.050565 0
0.93654764 0.21588603 1.0596634 0
0.95144498 0.20940219 1.0546525 0
0.97043455 0.21020027 1.0454334 0
-1.372963 0.23089692 1.0508022 0
-1.3129286 0.23169494 1.0518838 0
-0.49089766 0.229527 1.050112 0
-0.24166472 0.22632797 1.0486839 0
0.93764794 0.23304677 1.0580238 0
0.94946349 0.22870722 1.0530883 0
0.96742034 0.23006158 1.0447154 0
-1.3728458 0.25066113 1.0501031 0
-1.3115656 0.24836114 1.0511202 0
-0.49076948 0.2500104 1.0492092 0
-0.2416873 0.24545045 1.0484883 0
0.49751568 0.24623899 1.0515213 0
0.51048136 0.24440825 1.0498092 0
0.52378261 0.24525766 1.0507188 0
0.9357428 0.24743596 1.0580657 0
0.95116067 0.24747767 1.0536859 0
0.97054756 0.24832609 1.0505672 0
0.99016696 0.24965492 1.0514158 0
1.0103688 0.25054312 1.0505115 0
1.031358 0.25123906 1.0492027 0
1.0507277 0.25381246 1.0481434 0
1.067982 0.25632608 1.0434375 0
-1.3730963 0.27021441 1.0505159 0
-1.3112071 0.2694144 1.0476782 0
-0.49116388 0.26980159 1.0492657 0
-0.24178606 0.27233642 1.047529 0
0.4963313 0.27138013 1.0509068 0
0.50392967 0.27392566 1.0427513 0
1.0380461 0.27426881 1.0592898 0
1.0507907 0.26927549 1.0547712 0
1.0670977 0.27002037 1.0441293 0
-1.3729223 0.29034305 1.0498292 0
-1.3119667 0.2898187 1.0472353 0
-0.49066457 0.28946045 1.0501605 0
-0.24288741 0.29423559 1.0549407 0
0.49523592 0.28995734 1.0549574 0
0.50211644 0.28797042 1.0464455 0
1.036968 0.28690058 1.0591252 0
1.0494304 0.29057142 1.0537037 0
1.0661657 0.28941318 1.0442514 0
-1.3729191 0.31076601 1.0504259 0
-1.3111957 0.3065297 1.0522543 0
-0.49102139 0.30979678 1.0500575 0
-0.24249147 0.30371282 1.0505375 0
-0.23968227 0.30676556 1.0408186 0
0.49347168 0.3037591 1.0585741 0
0.50169909 0.30909789 1.0481448 0
1.0335664 0.30952895 1.0584182 0
1.0495433 0.31005186 1.0519469 0
1.0658737 0.30932447 1.0428993 0
-1.3727076 0.33049715 1.0506265 0
-1.311204 0.32720745 1.0514107 0
-0.4905827 0.33031723 1.0501486 0
-0.24250582 0.33475456 1.0507715 0
0.49819249 0.33189571 1.0569277 0
0.50183123 0.33163562 1.0458794 0
1.0306202 0.32858109 1.0573088 0
1.0494099 0.32936352 1.0497323 0
1.0649666 0.32966006 1.0418849 0
-1.3729079 0.35033378 1.0506018 0
-1.3127371 0.34892488 1.0486026 0
-0.49098045 0.35045269 1.0497823 0
-0.24269295 0.34139937 1.0564349 0
0.49839383 0.34353167 1.0542283 0
0.50855511 0.34667096 1.0512313 0
0.53040618 0.34456885 1.0500871 0
0.55293661 0.34762847 1.0509633 0
0.56182992 0.35587209 1.0582101 0
1.0182884 0.3537119 1.0586169 0
1.0301225 0.35010156 1.0561327 0
1.0497458 0.35060638 1.0478392 0
1.0634147 0.34557968 1.0404601 0
-1.372981 0.36997566 1.0498396 0
-1.3119553 0.37134498 1.0496539 0
-0.49075657 0.37038821 1.0508057 0
-0.24260119 0.36682859 1.0510616 0
0.55749255 0.36420056 1.0454984 0
0.56843543 0.37363648 1.0501807 0
0.58177423 0.37964642 1.0525029 0
1.0151759 0.36928579 1.0584942 0
1.0293499 0.37120369 1.0537064 0
1.0503027 0.36915901 1.0455695 0
-1.3731211 0.38867322 1.0508295 0
-1.3114562 0.38849509 1.0504447 0
-0.49031472 0.39081693 1.0513866 0
-0.24132125 0.38766915 1.0504709 0
0.59189367 0.3847824 1.0483298 0
0.6091063 0.39214814 1.0497305 0
0.62294072 0.39851308 1.0502237 0
1.0123127 0.39022192 1.0577049 0
1.0306532 0.39005494 1.0517119 0
1.0494766 0.39069167 1.0442307 0
-1.3725967 0.4094635 1.0499921 0
-1.3122542 0.40920091 1.0525776 0
-0.49065807 0.40923658 1.0503438 0
-0.24238384 0.40590772 1.0485542 0
0.6331771 0.4043372 1.0520241 0
0.64626753 0.41275382 1.0495491 0
1.0112104 0.40891224 1.0565866 0
1.0313181 0.41081977 1.0501496 0
1.049294 0.40924862 1.0438671 0
-1.3724879 0.43029943 1.0506979 0
-1.3098181 0.42201382 1.050951 0
-0.49092737 0.42928326 1.0494391 0
-0.24328373 0.43097985 1.0548177 0
0.6521138 0.42974472 1.0514208 0
0.99510461 0.4341771 1.0587902 0
1.010661 0.42953494 1.055367 0
1.0307033 0.43043917 1.0489602 0
1.0473921 0.42940485 1.0430422 0
-1.3725185 0.45084307 1.0497941 0
-1.3120456 0.44331658 1.0560677 0
-0.49105328 0.44878158 1.0495492 0
-0.24228552 0.44186586 1.0471661 0
0.6510644 0.44545564 1.0482845 0
0.99233985 0.45260108 1.0579411 0
1.0092916 0.44954976 1.0528473 0
1.0285554 0.44815913 1.04672 0
1.0449233 0.44865075 1.041991 0
-1.373131 0.46991649 1.0500077 0
-1.3124621 0.47160321 1.0503234 0
-0.49105129 0.47021604 1.0506002 0
-0.41613534 0.47149956 1.045904 0
-0.24223435 0.46885595 1.0536041 0
-0.23939033 0.46666986 1.042163 0
0.97305691 0.47935814 1.0597055 0
0.98904681 0.47060794 1.0569789 0
1.0117904 0.47208118 1.0486442 0
1.0305147 0.4651458 1.0446733 0
-1.3728926 0.48985422 1.0497063 0
-1.3134013 0.49853265 1.0513837 0
-0.49116835 0.49080363 1.0501794 0
-0.41642469 0.49089694 1.04873 0
-0.24248484 0.48421866 1.051055 0
0.95828176 0.49537838 1.054939 0
0.97290707 0.489683 1.05644 0
0.99096626 0.48644504 1.0492932 0
1.0063241 0.48471615 1.0438037 0
-1.3726448 0.50976771 1.0503935 0
-1.3102857 0.51191795 1.0479093 0
-0.49116153 0.5100174 1.0501415 0
-0.41646427 0.50929511 1.0492568 0
-0.24055037 0.51235276 1.045037 0
0.91782737 0.51555419 1.056109 0
0.93078727 0.51308125 1.0536962 0
0.95130438 0.50763935 1.0465459 0
0.96305597 0.50207949 1.0423311 0
-1.3726013 0.53117186 1.0502146 0
-1.3125682 0.53412116 1.0492289 0
-0.49110973 0.5284127 1.0497758 0
-0.41721058 0.52810889 1.0501437 0
-0.24191004 0.52871132 1.0485337 0
0.569323 0.53295863 1.0509846 0
0.87336665 0.53753817 1.0556334 0
0.89026833 0.53231514 1.0519623 0
0.90771323 0.52925199 1.0453682 0
0.92756689 0.52296841 1.0446885 0
-1.3730819 0.54995036 1.0496306 0
-1.3069836 0.55402887 1.0477544 0
-1.2907424 0.55827969 1.0479493 0
-0.49109754 0.54883146 1.0484812 0
-0.41706428 0.54898441 1.052747 0
-0.24196373 0.55122793 1.0520757 0
-0.23965089 0.55157083 1.041903 0
0.56876832 0.54803604 1.0487981 0
0.81697613 0.55931866 1.0568116 0
0.83028567 0.55582798 1.0555491 0
0.85112911 0.55267394 1.0489782 0
0.8716799 0.54612559 1.045887 0
0.88130957 0.5432874 1.0445086 0
-1.3724077 0.57020855 1.0513804 0
-1.2753164 0.56361294 1.0477765 0
-0.49073893 0.56968975 1.0495296 0
-0.41718131 0.56819183 1.0508616 0
-0.30436507 0.57659197 1.0508212 0
-0.2891494 0.57677698 1.0498474 0
-0.26933002 0.57672602 1.0499767 0
-0.24874967 0.56731844 1.0498022 0
-0.23968196 0.56039292 1.0411432 0
0.57125705 0.56864583 1.0501587 0
0.79176199 0.5743162 1.0520368 0
0.81096572 0.57090777 1.048991 0
0.83070624 0.56380665 1.0461581 0
-1.3734388 0.59002107 1.0495291 0
-1.2663504 0.58711702 1.0492147 0
-1.2502303 0.59366661 1.0513381 0
-1.2310747 0.59470129 1.0500395 0
-1.20818 0.59482944 1.0447693 0
-1.1904666 0.59609425 1.0459296 0
-1.087168 0.59546721 1.0555649 0
-1.0692031 0.59524053 1.0542822 0
-1.0496721 0.59507948 1.0507748 0
-1.0292319 0.59464788 1.0486658 0
-1.0092568 0.59513956 1.0503912 0
-0.98870575 0.59564203 1.0486265 0
-0.97197813 0.59449065 1.051234 0
-0.95126885 0.59551227 1.0485561 0
-0.92794341 0.59529209 1.0521885 0
-0.90858763 0.59450638 1.04971 0
-0.88701165 0.59544277 1.0489935 0
-0.86807984 0.59513468 1.0508946 0
-0.85002744 0.59463853 1.0475008 0
-0.83015269 0.59568518 1.0488561 0
-0.81096804 0.59567243 1.0515651 0
-0.79001069 0.59531283 1.052846 0
-0.77108663 0.59504128 1.0498459 0
-0.74813658 0.5947637 1.047962 0
-0.72673655 0.59559417 1.0520554 0
-0.70584124 0.59548819 1.0481322 0
-0.69149566 0.59418517 1.0467796 0
-0.67290354 0.59420079 1.0508571 0
-0.65250981 0.59435183 1.0518774 0
-0.63030064 0.59477526 1.048995 0
-0.60984796 0.59515995 1.0507044 0
-0.58855402 0.59574175 1.0527104 0
-0.5643906 0.59631628 1.049778 0
-0.54266709 0.59704626 1.0543075 0
-0.53023189 0.59428996 1.0474976 0
-0.50434452 0.59361124 1.051765 0
-0.49105904 0.5875234 1.0510951 0
-0.41627851 0.5879972 1.0477519 0
-0.32142496 0.59064645 1.0556369 0
-0.31929338 0.590689 1.0428896 0
