# .PCD v0.7 - Point Cloud Data file format
VERSION 0.7
FIELDS x y z rgb
SIZE 4 4 4 4
TYPE F F F F
COUNT 1 1 1 1
WIDTH 1241
HEIGHT 1
VIEWPOINT 0 0 0 1 0 0 0
POINTS 1241
DATA ascii
0.28651029 0.69125068 -3.0875206e-05 0
0.45433277 0.69033188 -9.3221664e-05 0
0.5566684 0.69083548 -0.00011754036 0
0.60508054 0.69380236 -0.00013303757 0
0.67801845 0.68096721 -0.00018906593 0
0.68035275 0.69463289 -0.00018978119 0
0.73241562 0.69211268 -0.00015509129 0
0.75923008 0.69031954 -0.00017142296 0
0.84355903 0.68721783 -0.00018644333 0
0.87081206 0.6851275 -0.00019532442 0
0.88688326 0.68232548 -0.00016158819 0
0.90418124 0.69089454 -0.00024092197 0
0.98270845 0.6890766 -0.00014460087 0
1.0327492 0.69107997 -0.00027865171 0
1.0971515 0.68226993 -0.00027489662 0
1.1004361 0.69527698 -0.00027620792 0
1.1250056 0.69270003 -0.00033247471 0
1.175142 0.68610752 -0.00030988455 0
1.1824081 0.69629121 -0.00028836727 0
1.2132068 0.69449973 -0.00014054775 0
1.228177 0.69312614 -0.00014444193 0
1.2457641 0.69446295 -0.00014519691 0
1.2695351 0.69318819 -0.00020798048 0
1.2899213 0.69515198 -0.00014954805 0
1.3104293 0.69667876 -0.0001500845 0
1.3307493 0.69819152 -0.00015085936 0
1.3501135 0.69540924 -0.00025051832 0
1.369586 0.6878469 -0.00038343668 0
1.4460816 0.68065131 -0.00014543533 0
1.4699755 0.6823163 -0.00014603138 0
1.4936534 0.68396628 -0.00014680624 0
-1.4932896 0.70099854 -0.00019752979 0
-1.4752274 0.70851195 -0.00037121773 0
-1.4526416 0.7091558 -0.00079488754 0
-1.2682245 0.71063596 -0.00032675266 0
-1.2235745 0.71970642 -0.00015199184 0
-1.2095237 0.71562594 -0.00020476183 0
-1.1866895 0.7145642 -0.00014948845 0
-1.1706996 0.71233505 -0.00014841557 0
-1.1545783 0.71008754 -0.00014728308 0
-1.1329029 0.70706582 -0.00014579296 0
-1.109334 0.70597088 -0.00074100494 0
-1.0909504 0.7097137 -0.0001488328 0
-1.0706545 0.71545643 -0.00015354156 0
-1.0480454 0.71238089 -0.00015234947 0
-1.0309334 0.71005309 -0.00015127659 0
-1.0122889 0.70755863 -0.00032609701 0
-0.84095049 0.71959031 -0.00023388863 0
-0.83274651 0.70971388 -0.00022858381 0
-0.81171763 0.70717323 -0.00066316128 0
-0.68540418 0.70712841 -0.00018107891 0
-0.67182684 0.70505458 -0.00018048286 0
-0.65126014 0.7061553 -0.00018751621 0
-0.6297254 0.70969838 -0.00016665459 0
-0.60952711 0.7099815 -0.0001270771 0
-0.58672774 0.70778269 -0.00017356873 0
-0.5702939 0.70828533 -0.00017631054 0
-0.54952961 0.70727766 -9.560585e-05 0
-0.50657523 0.71142459 -0.00013059378 0
-0.49562973 0.70872295 -9.7513199e-05 0
-0.44131196 0.71924216 -0.00016856194 0
-0.42603302 0.71673751 -0.00016748905 0
-0.41063225 0.71421307 -0.00016653538 0
-0.3951081 0.71166825 -0.00016546249 0
-0.37169456 0.70855188 -0.00012036165 0
-0.35183799 0.7107904 -0.00015699863 0
-0.33187327 0.7095437 -0.00015381972 0
-0.30771756 0.70963508 -0.00014829636 0
-0.2860505 0.71057737 -5.0028168e-05 0
-0.27426004 0.70577967 -8.3446503e-05 0
-0.25830054 0.70139313 -0.00014519691 0
-0.17775221 0.70985305 -9.4175339e-06 0
-0.14016211 0.71419942 -3.4570694e-06 0
-0.11233199 0.70902896 -8.9406967e-06 0
0.12169106 0.71096992 -2.9802322e-06 0
0.1407228 0.70761073 -3.6597252e-05 0
0.17919071 0.70670772 -2.5510788e-05 0
0.21848038 0.71159554 -4.529953e-06 0
0.28835922 0.71273172 -3.1530857e-05 0
0.45690727 0.71139419 -9.393692e-05 0
0.55866718 0.70468307 -0.00011825562 0
0.56065112 0.71842849 -0.00011897087 0
0.60720336 0.70753062 -0.00013375282 0
0.68267071 0.70820332 -0.00019025803 0
0.73609233 0.71229225 -0.00015664101 0
0.76301289 0.71043921 -0.00017273426 0
0.84767365 0.70715261 -0.00018787384 0
0.8778497 0.70934439 -0.00023090839 0
0.90836936 0.71073794 -0.00024211407 0
0.98725837 0.70868194 -0.00014492869 0
1.0374815 0.71058023 -0.00028032064 0
1.1037029 0.70821452 -0.00027728081 0
1.1301426 0.71194106 -0.00033384562 0
1.1766298 0.70805693 -0.00033390522 0
1.185972 0.70906043 -0.00028955936 0
1.2100232 0.70970404 -0.00016766787 0
1.2312665 0.71150398 -0.00016796589 0
1.251919 0.70890498 -0.00015874705 0
1.2718744 0.70932114 -0.00021239123 0
1.2906306 0.70996535 -0.00015541911 0
1.3111049 0.71167463 -0.00015619397 0
1.3286791 0.71093214 -0.00015258789 0
1.3527501 0.70514297 -0.00019815564 0
1.3708473 0.70928627 -0.0002457755 0
1.3894006 0.70703042 -0.00015002489 0
1.409022 0.70856756 -0.00015074015 0
1.4284828 0.71009225 -0.00015166402 0
1.4477878 0.71160477 -0.00015255809 0
1.4695494 0.71427679 -0.0001531601 0
1.4879396 0.71313876 -0.00015481314 0
-1.4826568 0.73424172 -0.00037407875 0
-1.4789497 0.72140336 -0.00037264824 0
-1.4581271 0.7284773 -0.00079864264 0
-1.3654113 0.7394802 -0.00016152859 0
-1.3475865 0.7373904 -0.00022208691 0
-1.3307395 0.73464656 -0.00015920401 0
-1.3107029 0.73185319 -0.00015795231 0
-1.2904948 0.72903591 -0.00015664101 0
-1.2710731 0.72750777 -0.000213027 0
-1.2492275 0.72877192 -0.00015711784 0
-1.2333307 0.7320801 -0.0001594623 0
-1.2147417 0.73304534 -0.00023770332 0
-1.1908722 0.73180985 -0.00016033649 0
-1.1695065 0.72890341 -0.00015920401 0
-1.1479297 0.72596836 -0.00015807152 0
-1.1261356 0.72300369 -0.00015676022 0
-1.1099813 0.72666883 -0.0013465087 0
-1.0480256 0.73872232 -0.0001693368 0
-1.0309318 0.73630893 -0.00016832352 0
-1.0140266 0.73170537 -0.0002797842 0
-0.84303117 0.73308969 -0.00023424625 0
-0.82868826 0.72698939 -0.00022399426 0
-0.81474221 0.72756815 -0.00066649914 0
-0.62703383 0.73125422 -0.00010299683 0
-0.61328006 0.72829425 -0.00010627508 0
-0.58483934 0.72760057 -0.00011944771 0
-0.57400125 0.73264313 -0.00016462803 0
-0.55196995 0.73440194 -0.00014885268 0
-0.53054345 0.73386902 -0.00017380714 0
-0.50851464 0.73103714 -0.00015854836 0
-0.49371216 0.72880876 -0.00012254715 0
-0.47141692 0.73268402 -0.00016264121 0
-0.45265025 0.7274487 -0.00016331673 0
-0.43364692 0.73063827 -0.00015640259 0
-0.41063386 0.72680002 -0.00015497208 0
-0.38737607 0.72292089 -0.00015342236 0
-0.37264913 0.72773695 -7.3194504e-05 0
-0.28415915 0.73397171 -2.1457672e-06 0
-0.27433884 0.72900343 -2.0742416e-05 0
-0.17804506 0.73152941 -1.0251999e-05 0
-0.14024073 0.72866917 -3.695488e-06 0
-0.11232179 0.73078036 -8.7022781e-06 0
0.12278057 0.73255539 -3.4570694e-06 0
0.14190069 0.72921073 -3.6716461e-05 0
0.18054163 0.72822416 -2.5868416e-05 0
0.21949764 0.72588944 -4.8875809e-06 0
0.29018787 0.73397684 -3.2424927e-05 0
0.45860589 0.72529054 -9.4532967e-05 0
0.46029148 0.73908031 -9.5248222e-05 0
0.56262052 0.73207271 -0.00011968613 0
0.61035711 0.7279253 -0.00013488531 0
0.68611586 0.72837192 -0.0001912117 0
0.7397362 0.73229218 -0.00015819073 0
0.76676267 0.7303828 -0.00017404556 0
0.85174543 0.72688007 -0.00018930435 0
0.88203228 0.72899723 -0.00023210049 0
0.91251564 0.73038232 -0.00024342537 0
0.99177372 0.72813857 -0.00014543533 0
1.0387993 0.72473717 -0.00028979778 0
1.0432948 0.73162454 -0.00027922791 0
1.1085694 0.72748607 -0.00027894974 0
1.1352447 0.73105216 -0.00033533573 0
1.1873765 0.73083538 -0.00031360984 0
1.2811853 0.73050678 -0.00033009052 0
1.3395398 0.72067761 -0.00016999245 0
1.3545847 0.72195238 -0.00017046928 0
1.3716695 0.72559559 -0.00023194155 0
1.3907307 0.72750968 -0.00024342537 0
1.4138366 0.72697258 -0.00017160177 0
1.4332654 0.72861874 -0.0001719594 0
1.4525418 0.73025197 -0.00017225742 0
1.4716704 0.73187268 -0.00017273426 0
1.4933977 0.72915977 -0.00016653538 0
-1.4893576 0.75547922 -0.00025250911 0
-1.4656032 0.75162309 -0.00037972134 0
-1.4476395 0.75094366 -0.00016713142 0
-1.4285271 0.74827933 -0.00016593933 0
-1.4092727 0.74559498 -0.00016456842 0
-1.3896997 0.74819678 -0.00016621749 0
-1.3748454 0.75148964 -0.00016804537 0
-1.3511045 0.75416839 -0.00024631619 0
-1.325027 0.75005919 -0.0001681447 0
-1.3099426 0.7480073 -0.00016725063 0
-1.2947514 0.74594069 -0.00016635656 0
-1.2760428 0.74632072 -0.00024777651 0
-1.2589352 0.74106866 -0.00016438961 0
-1.2219743 0.75081921 -0.00031495094 0
-1.1907811 0.75887752 -0.00017869473 0
-1.1694167 0.75586128 -0.00017744303 0
-1.1478448 0.75281549 -0.00017595291 0
-1.1260587 0.74973965 -0.00017464161 0
-1.1113756 0.75325501 -0.00062993169 0
-1.0908471 0.74997443 -0.0001847744 0
-1.0685109 0.7467221 -0.00018340349 0
-1.0495198 0.74899894 -0.00019514561 0
-1.0285795 0.75041318 -0.00019470851 0
-1.0130733 0.74737281 -0.00031938552 0
-0.84612471 0.75316179 -0.00023454428 0
-0.83173835 0.74715245 -0.00022470951 0
-0.81773961 0.74778056 -0.00066959858 0
-0.62718701 0.7505033 -0.00010728836 0
-0.61000311 0.75159502 -9.7990036e-05 0
-0.58690739 0.74834669 -0.00012016296 0
-0.57534939 0.74648833 -0.00016474724 0
-0.55341166 0.74917996 -9.7215176e-05 0
-0.52301693 0.74554384 -0.00016224384 0
-0.50895262 0.74481046 -0.00014603138 0
-0.496364 0.74574661 -0.00012952089 0
-0.37428409 0.75263429 -3.4451485e-05 0
-0.3065722 0.75988966 -0.00017106533 0
-0.28754392 0.75259542 -8.6188316e-05 0
-0.2745958 0.75223351 -9.5069408e-05 0
-0.24942327 0.74968648 -0.00016772747 0
-0.23248911 0.75932956 -0.00019788742 0
-0.17833459 0.75295937 -1.0848045e-05 0
-0.14035732 0.75012672 -4.3511391e-06 0
-0.11231175 0.75222123 -8.3446503e-06 0
0.12349869 0.74678302 -3.4570694e-06 0
0.143062 0.75050712 -3.6537647e-05 0
0.18187746 0.74950016 -2.6226044e-05 0
0.22100666 0.74709255 -5.6624413e-06 0
0.29139379 0.74798656 -3.3020973e-05 0
0.46196416 0.75276518 -9.5486641e-05 0
0.5655461 0.75234127 -0.00012075901 0
0.61348099 0.74812675 -0.00013589859 0
0.68952978 0.74835753 -0.00019216537 0
0.74334013 0.75207293 -0.00015985966 0
0.77047193 0.75011104 -0.00017541647 0
0.85711896 0.75291526 -0.00019097328 0
0.88617301 0.74845326 -0.0002335906 0
0.91662908 0.7498709 -0.00024473667 0
0.99624717 0.74741399 -0.00014597178 0
1.0468264 0.7490862 -0.00028336048 0
1.1150019 0.75296104 -0.0002810955 0
1.1386236 0.74370813 -0.0003361702 0
1.1419857 0.75630164 -0.00033712387 0
1.1925592 0.74978364 -0.00031518936 0
1.200057 0.75952744 -0.00029408932 0
1.2866368 0.74938846 -0.00033181906 0
1.3717766 0.74832499 -0.00035607815 0
1.3896737 0.75058419 -0.00038945675 0
-1.4913692 0.77267826 -0.00028085709 0
-1.4700353 0.76834977 -0.00049117208 0
-1.4520706 0.76734114 -0.00017541647 0
-1.4329332 0.7647379 -0.00017440319 0
-1.4136547 0.76211536 -0.0001732707 0
-1.3991046 0.76013613 -0.00017237663 0
-1.3400171 0.7799477 -0.0001885891 0
-1.3300203 0.77853632 -0.00018799305 0
-1.3149436 0.77640766 -0.00018697977 0
-1.2906144 0.77193069 -0.00023448467 0
-1.2742842 0.77066708 -0.00018417835 0
-1.2515061 0.77336776 -0.00019422174 0
-1.2293093 0.77025336 -0.00023410718 0
-1.209772 0.76729083 -0.00019171834 0
-1.1864523 0.76954329 -0.00020229816 0
-1.1704671 0.76714498 -0.0002014637 0
-1.1515 0.77130675 -0.00020110607 0
-1.1298164 0.76802409 -0.00020003319 0
-1.1157455 0.76977217 -0.001371344 0
-1.093967 0.76953411 -0.00019925833 0
-1.0686762 0.77260673 -0.00020807981 0
-1.0490675 0.76728415 -0.00020396709 0
-1.0285181 0.77083081 -0.00033080578 0
-1.0088379 0.77024555 -0.00021582842 0
-0.84919155 0.77306008 -0.00023519993 0
-0.82822478 0.7707715 -0.00044971704 0
-0.81972015 0.76113605 -0.00067174435 0
-0.63100284 0.76775664 -0.00010494392 0
-0.61213994 0.77204669 -9.906292e-05 0
-0.58895499 0.76888645 -0.00012099743 0
-0.57735145 0.7670486 -0.00016504526 0
-0.55532074 0.76978588 -9.8109245e-05 0
-0.5059787 0.76937175 -0.00011515617 0
-0.40082288 0.77671677 -0.00017666817 0
-0.38542295 0.77396739 -0.00017571449 0
-0.37247652 0.76889986 -0.00010490417 0
-0.35001105 0.77414989 -0.0001886487 0
-0.3303532 0.76845598 -0.0001824697 0
-0.31226861 0.77663147 -0.00010180473 0
-0.28900629 0.77087277 -8.1944469e-05 0
-0.27135339 0.77045631 -4.9662591e-05 0
-0.24907303 0.76234061 -0.00019872189 0
-0.17852543 0.76708567 -1.1444092e-05 0
-0.14047258 0.7713424 -4.8875809e-06 0
-0.11230181 0.7734201 -8.225441e-06 0
0.12456385 0.76788652 -3.695488e-06 0
0.14421044 0.77156651 -3.6716461e-05 0
0.18319488 0.77048278 -2.6643276e-05 0
0.22249918 0.76806355 -6.4373016e-06 0
0.29318318 0.76877594 -3.3736229e-05 0
0.46444821 0.77308667 -9.6440315e-05 0
0.56844366 0.772416 -0.00012171268 0
0.61656851 0.76809251 -0.00013715029 0
0.69290531 0.76811934 -0.00019299984 0
0.74691302 0.7716825 -0.00016140938 0
0.77414966 0.76967096 -0.00017666817 0
0.86110866 0.77224493 -0.00019240379 0
0.89028102 0.76775515 -0.00023496151 0
0.91934961 0.76276124 -0.00024545193 0
0.92205465 0.77557707 -0.0002464056 0
0.99959064 0.76740742 -3.528595e-05 0
1.0032792 0.77200425 -0.0002579093 0
1.0514408 0.76810014 -0.0002848506 0
1.119786 0.77190566 -0.00028300285 0
1.1453313 0.76883388 -0.00033771992 0
1.1936057 0.77140331 -0.00033903122 0
1.2113236 0.76839697 -0.00020292401 0
1.2301226 0.77324736 -0.00017348926 0
1.2456883 0.77023804 -0.00017340979 0
1.2663558 0.76768547 -0.00017350912 0
1.2887487 0.76915497 -0.00022757053 0
1.3076483 0.77160239 -0.00017529726 0
1.328021 0.77353489 -0.00017619133 0
1.3482186 0.77545083 -0.0001770854 0
1.3713363 0.77391386 -0.00023806095 0
1.3882909 0.77677166 -0.00027707219 0
-1.490123 0.78814816 -0.0003836751 0
-1.4737194 0.79526222 -0.00050380826 0
-1.4522264 0.7957902 -0.00019580126 0
-1.4330544 0.79308331 -0.00019460917 0
-1.4137435 0.79035693 -0.00019335747 0
-1.3911984 0.79151821 -0.00019884109 0
-1.3724908 0.79098415 -0.00020134449 0
-1.3527354 0.78810757 -0.0002002418 0
-1.3306274 0.79117429 -0.00020986795 0
-1.3105551 0.78816283 -0.00020873547 0
-1.2889799 0.78905076 -0.00025823116 0
-1.2723233 0.78960514 -0.00020694733 0
-1.254189 0.79400712 -0.00020635128 0
-1.2326133 0.79029465 -0.00024271011 0
-1.2125483 0.78764671 -0.00020444393 0
-1.1885586 0.79108387 -0.00021281838 0
-1.1699919 0.78586614 -0.00020893416 0
-1.1535683 0.79275215 -0.00022107363 0
-1.1287459 0.78889024 -0.00080168247 0
-1.1100421 0.78598356 -0.00021958351 0
-1.0879555 0.7825489 -0.00021862984 0
-1.027146 0.79260087 -0.00051486492 0
-0.85222572 0.79274607 -0.00023561716 0
-0.83304918 0.787135 -0.00037622452 0
-0.62923884 0.78751636 -0.00011241436 0
-0.61425078 0.79225045 -0.0001001358 0
-0.59097731 0.7891739 -0.00012165308 0
-0.57933372 0.78740573 -0.00016522408 0
-0.55720609 0.79013568 -9.8824501e-05 0
-0.50766432 0.78985417 -0.0001155138 0
-0.37126884 0.78580296 -9.1671944e-05 0
-0.28617996 0.79012752 -3.8146973e-06 0
-0.27648348 0.79228318 -2.2053719e-05 0
-0.17880856 0.78803992 -1.2278557e-05 0
-0.14058623 0.79226375 -5.364418e-06 0
-0.11229527 0.787395 -7.9870224e-06 0
0.1256173 0.78875697 -4.0531158e-06 0
0.14534314 0.79233754 -3.6656857e-05 0
0.18449791 0.79123688 -2.6941299e-05 0
0.22397149 0.7887513 -7.212162e-06 0
0.29495355 0.78934479 -3.4332275e-05 0
0.46690756 0.79320693 -9.739399e-05 0
0.57130706 0.79225409 -0.00012284517 0
0.61962748 0.78787386 -0.00013828278 0
0.69625115 0.78770661 -0.0001938343 0
0.75044763 0.79108298 -0.0001629591 0
0.77778876 0.78902566 -0.00017803907 0
0.86505872 0.79138297 -0.00019365549 0
0.89434898 0.78686923 -0.00023627281 0
0.92474413 0.78831911 -0.00024735928 0
1.0051923 0.78790236 -0.00010947387 0
1.0560231 0.78698146 -0.00028651953 0
1.0611926 0.79806173 -0.00028014183 0
1.1245301 0.7906934 -0.00028461218 0
1.1503178 0.78751111 -0.00033921003 0
1.1986219 0.79012144 -0.00034034252 0
1.211578 0.78945988 -0.00032167436 0
1.229221 0.78587264 -0.00025018057 0
1.2496223 0.78787011 -0.00027172567 0
1.2699969 0.78842163 -0.00025687617 0
1.2923993 0.78791797 -0.00025529522 0
1.3129674 0.78753269 -0.00017204881 0
1.3333298 0.78945792 -0.00017312169 0
1.3535191 0.79136688 -0.00017419457 0
1.3735403 0.79325986 -0.00017517805 0
1.3930458 0.79230857 -0.00024298827 0
1.4102179 0.79199672 -0.00020883765 0
1.4296451 0.7921378 -0.00018007755 0
1.4496094 0.79210454 -0.00018292665 0
1.4660146 0.78662485 -0.000182271 0
1.4898767 0.78888839 -0.00018338363 0
-1.4889045 0.80977702 -0.00031091771 0
-1.4692187 0.81083107 -0.00027283034 0
-1.4478538 0.80876219 -0.00021588802 0
-1.4286746 0.8058846 -0.00021487474 0
-1.4116843 0.81070274 -0.00021359324 0
-1.3946407 0.81056619 -0.0002125899 0
-1.3700585 0.81170553 -0.00021147728 0
-1.3453288 0.80792814 -0.00021034479 0
-1.3252311 0.80972099 -0.00021533172 0
-1.3075548 0.80943149 -0.00021761656 0
-1.2914492 0.81344539 -0.0002810657 0
-1.2691796 0.81073052 -0.00022524595 0
-1.2485764 0.80752659 -0.00022441149 0
-1.2315668 0.80623496 -0.00027129054 0
-1.2068281 0.80103445 -0.00022304058 0
-1.1264383 0.80700749 -0.0019719005 0
-1.0467466 0.81848538 -0.00020509958 0
-1.0304518 0.81309986 -0.00041321915 0
-1.0126015 0.81288826 -0.00020307302 0
-0.84620976 0.81274927 -0.00023015341 0
-0.82654965 0.80718827 -0.00067895651 0
-0.64006573 0.81505167 -0.00010120869 0
-0.63301951 0.80444455 -0.00011003017 0
-0.61634147 0.81226063 -0.00010120869 0
-0.58518785 0.80809802 -0.00015099844 0
-0.55907285 0.81028509 -9.9658966e-05 0
-0.50932896 0.81007981 -0.00011599064 0
-0.37731403 0.80784643 -3.6120415e-05 0
-0.28692043 0.81070346 -4.7087669e-06 0
-0.27718031 0.81284481 -2.2351742e-05 0
-0.17908856 0.80876458 -1.2993813e-05 0
-0.14069867 0.81295514 -5.9604645e-06 0
-0.11228557 0.80812681 -7.8678131e-06 0
0.12665638 0.80934358 -4.3511391e-06 0
0.14646356 0.8128835 -3.6716461e-05 0
0.18578348 0.81171191 -2.7418137e-05 0
0.22542809 0.80921817 -7.8678131e-06 0
0.29670089 0.80964494 -3.516674e-05 0
0.46933681 0.81308115 -9.7990036e-05 0
0.57414377 0.81190741 -0.00012397766 0
0.62265164 0.80743033 -0.00013935566 0
0.69846225 0.80065036 -0.00019466877 0
0.70065886 0.81351054 -0.0001950264 0
0.75395256 0.8103199 -0.00016462803 0
0.78139752 0.80821991 -0.00017929077 0
0.86897784 0.81037116 -0.00019490719 0
0.89838564 0.80583668 -0.00023758411 0
0.90105623 0.81838512 -0.00023829937 0
0.92874742 0.80728674 -0.00024849176 0
1.0109023 0.81056184 -0.00014725327 0
1.0584035 0.80713344 -0.00029504299 0
1.0642639 0.81047249 -0.00028145313 0
1.1292431 0.80935788 -0.0002862215 0
1.1985877 0.81900847 -0.00016379356 0
1.2077893 0.80786067 -0.00026962758 0
1.2302783 0.80849177 -0.00018382072 0
1.2514243 0.81053936 -0.0001847744 0
1.272377 0.81256837 -0.00018566847 0
1.2929515 0.80986941 -0.00026861829 0
1.3087664 0.80998063 -0.00031960011 0
1.3312936 0.81118852 -0.00031173229 0
1.3487231 0.80573773 -0.0004363656 0
1.3688222 0.80763042 -0.00043773651 0
1.3897619 0.80988067 -0.00040102005 0
1.4089512 0.81173044 -0.00041800737 0
1.4311352 0.80901921 -0.00035222372 0
1.4496347 0.80850351 -0.00030851364 0
1.4698565 0.80729312 -0.00026828051 0
1.4889978 0.80910057 -0.00026939315 0
-1.4886273 0.82983696 -0.0005171299 0
-1.4692593 0.8272664 -0.00027128062 0
-1.4499435 0.83137047 -0.00022336841 0
-1.4307498 0.82841229 -0.00022265315 0
-1.4088318 0.83244747 -0.00023031235 0
-1.3893366 0.8294158 -0.00022947788 0
-1.3696975 0.82636178 -0.00022876263 0
-1.34991 0.82328469 -0.00022810698 0
-1.3349741 0.82096201 -0.00022745132 0
-1.2978871 0.83175755 -0.00033795834 0
-1.2426418 0.83951545 -0.0003207922 0
-1.2397318 0.82702672 -0.00032007694 0
-1.1676732 0.83830774 -0.00021249056 0
-1.1461563 0.83478075 -0.00021123886 0
-1.1311344 0.83221239 -0.0013912519 0
-1.1135015 0.82942784 -0.0002092123 0
-1.0914695 0.82581639 -0.0002078414 0
-1.0715977 0.82980227 -0.00020197034 0
-1.0515598 0.8336966 -0.00019586086 0
-1.030756 0.83023256 -0.00030318898 0
-1.0060399 0.82610458 -0.00019294024 0
-0.85368288 0.83183825 -0.00023361048 0
-0.83038485 0.83304954 -0.00068312883 0
-0.64150506 0.82821488 -0.00010192394 0
-0.62954021 0.82689941 -0.00012069941 0
-0.61840749 0.83203459 -0.00010234118 0
-0.59104961 0.82855356 -0.00013720989 0
-0.56091696 0.83019018 -0.00010043383 0
-0.51097703 0.83010495 -0.00011640787 0
-0.37842515 0.82809275 -3.6716461e-05 0
-0.287653 0.83106101 -5.2452087e-06 0
-0.27786976 0.83318806 -2.2768974e-05 0
-0.17936477 0.82920903 -1.3828278e-05 0
-0.1407728 0.82659924 -6.3180923e-06 0
-0.11227596 0.82863235 -7.6293945e-06 0
0.12768428 0.8297087 -4.529953e-06 0
0.14756899 0.83315492 -3.6656857e-05 0
0.18705535 0.83196974 -2.7775764e-05 0
0.22686552 0.82941568 -8.5234642e-06 0
0.29843011 0.82973552 -3.5762787e-05 0
0.47174266 0.83276367 -9.8586082e-05 0
0.57694793 0.83133519 -0.00012487173 0
0.62663877 0.83321404 -0.00014078617 0
0.70392579 0.83263546 -0.00019592047 0
0.75742108 0.82935721 -0.00016611814 0
0.78496963 0.82721806 -0.00018054247 0
0.8728593 0.8291769 -0.00019621849 0
0.9037118 0.830863 -0.00023913383 0
0.93403554 0.83234125 -0.00025010109 0
1.0152249 0.82918799 -0.00014770031 0
1.066572 0.83044851 -0.00028985739 0
1.1339183 0.8278718 -0.00028789043 0
1.2117523 0.82698262 -0.00028780103 0
1.2238094 0.82561272 -0.00021068256 0
1.2465637 0.82377768 -0.00016713142 0
1.267571 0.82586586 -0.00016844273 0
1.2883909 0.82793558 -0.00016999245 0
1.3093076 0.82993811 -0.00022745132 0
1.3294902 0.83202112 -0.00017273426 0
1.3520741 0.82727289 -0.00018176436 0
1.372171 0.82924473 -0.00018283725 0
1.3929642 0.83068115 -0.00022010804 0
1.4120365 0.83060175 -0.00023967028 0
1.4337 0.82818943 -0.00019282103 0
1.453155 0.8300733 -0.00019359589 0
1.4724683 0.83194351 -0.00019448996 0
1.4916441 0.83380032 -0.00019532442 0
-1.490664 0.84587222 -0.00038006902 0
-1.4664999 0.84141523 -0.0002322197 0
-1.4555919 0.84564209 -0.00037920475 0
-1.3024505 0.85039163 -0.00033968687 0
-1.2928704 0.85883021 -0.00022017956 0
-1.2724411 0.85548139 -0.00021886826 0
-1.2497423 0.85205209 -0.00025224686 0
-1.2310746 0.84870064 -0.00021636486 0
-1.2101266 0.8452667 -0.00021505356 0
-1.1912446 0.84958595 -0.00020945072 0
-1.1722124 0.85381967 -0.00020372868 0
-1.1507378 0.85023803 -0.00020229816 0
-1.1312795 0.8480956 -0.00079695386 0
-1.107188 0.84297454 -0.00019943714 0
-1.090649 0.84021616 -0.00019860268 0
-1.0380322 0.84974027 -0.0005236268 0
-0.86116445 0.85074341 -0.00023686886 0
-0.84752321 0.85150278 -0.00022876263 0
-0.83323121 0.85224342 -0.00068604946 0
-0.64364403 0.84777796 -0.00010305643 0
-0.62837195 0.8525421 -0.00011575222 0
-0.58907115 0.84766531 -0.00015187263 0
-0.56274343 0.84990454 -0.0001013279 0
-0.51260489 0.8498854 -0.0001167357 0
-0.37952489 0.84813166 -3.7431717e-05 0
-0.288376 0.85115242 -5.9008598e-06 0
-0.27855021 0.85326505 -2.3126602e-05 0
-0.17963804 0.84943509 -1.4543533e-05 0
-0.14088279 0.84684652 -6.6757202e-06 0
-0.11226648 0.84886241 -7.4505806e-06 0
0.12869859 0.84980398 -4.8279762e-06 0
0.14866275 0.85321248 -3.6478043e-05 0
0.18831058 0.85196221 -2.7954578e-05 0
0.22828801 0.84940314 -9.1791153e-06 0
0.29957125 0.84299231 -3.6478043e-05 0
0.30070361 0.85614872 -3.6716461e-05 0
0.47411996 0.85221207 -9.9539757e-05 0
0.57972676 0.85058689 -0.00012588501 0
0.62959605 0.85233819 -0.00014197826 0
0.707165 0.85159922 -0.00019669533 0
0.76086122 0.84823847 -0.00016772747 0
0.78968441 0.85229433 -0.000182271 0
0.87671125 0.84783912 -0.00019752979 0
0.90766567 0.84944093 -0.00024044514 0
0.93796498 0.85095918 -0.00025117397 0
1.0185533 0.84595835 -0.00010927518 0
1.0223813 0.85273862 -0.0002644062 0
1.0728252 0.852404 -0.00028963885 0
1.1385635 0.84626818 -0.00028944016 0
1.1416411 0.8584559 -0.00029039383 0
1.1668029 0.85702419 -0.00016617775 0
1.1885765 0.8593592 -0.00016754866 0
1.215089 0.85156894 -0.00034511089 0
1.2257758 0.85167825 -0.00030249357 0
1.315134 0.84808886 -0.00034147501 0
1.4094131 0.84414232 -0.00032767653 0
1.427201 0.84612036 -0.0002528429 0
1.4488436 0.84388566 -0.00018072128 0
1.4682121 0.84581101 -0.00018203259 0
1.4874434 0.84772277 -0.00018340349 0
-1.4973676 0.86669272 -0.00082457066 0
-1.44638 0.86399651 -0.00037658215 0
-1.4122031 0.87839133 -0.00022739172 0
-1.3926766 0.8751905 -0.00022625923 0
-1.3730114 0.87196684 -0.00022488832 0
-1.3532027 0.86871994 -0.00022381544 0
-1.3296661 0.86992782 -0.00021938483 0
-1.3095968 0.86918831 -0.00024170875 0
-1.2870374 0.87297064 -0.00021100044 0
-1.2665507 0.86955386 -0.00020974874 0
-1.2478765 0.86829281 -0.0002656579 0
-1.230299 0.86350763 -0.00020742416 0
-1.2145905 0.86088765 -0.00020641088 0
-1.1409314 0.87584865 -0.0019985437 0
-1.1383265 0.86347532 -0.0019938946 0
-1.0416039 0.86848748 -0.00052642822 0
-0.96632087 0.87767857 -0.00021034479 0
-0.94874668 0.87454093 -0.00020933151 0
-0.8640877 0.86970949 -0.0002374649 0
-0.85039735 0.87050271 -0.00022947788 0
-0.83604842 0.8712405 -0.0006890893 0
-0.64646363 0.87356567 -0.00010448694 0
-0.62645143 0.87144339 -0.00011062622 0
-0.59326428 0.87062681 -0.00014513731 0
-0.56454837 0.8693862 -0.00010204315 0
-0.5142172 0.86947513 -0.00011730194 0
-0.38061067 0.8679173 -3.8087368e-05 0
-0.32970339 0.87491083 -1.1920929e-07 0
-0.28909156 0.87103593 -6.6757202e-06 0
-0.27922362 0.87313426 -2.3722649e-05 0
-0.17990771 0.86939466 -1.5318394e-05 0
-0.14099163 0.86687875 -7.2717667e-06 0
-0.11225709 0.86887801 -7.2717667e-06 0
0.12970224 0.86968875 -5.1259995e-06 0
0.14974232 0.87300915 -3.6597252e-05 0
0.18955286 0.87174821 -2.8252602e-05 0
0.22969227 0.86913455 -9.894371e-06 0
0.28142413 0.87520278 -3.5762787e-07 0
0.30182752 0.86920583 -3.7431717e-05 0
0.47647482 0.8714776 -0.00010025501 0
0.58247447 0.8696233 -0.0001270771 0
0.63252115 0.87125432 -0.00014299154 0
0.71037066 0.87036526 -0.00019770861 0
0.76426649 0.86692917 -0.00016915798 0
0.79318553 0.87091529 -0.0001834631 0
0.87925971 0.86018729 -0.00019812584 0
0.88179421 0.87246644 -0.00019907951 0
0.91159064 0.86788273 -0.00024187565 0
0.94185913 0.86940879 -0.00025248528 0
1.0251757 0.87206519 -0.00014862418 0
1.0751605 0.86964846 -0.00029508275 0
1.1509289 0.86881745 -0.00024068356 0
1.1735263 0.86895031 -0.00019067526 0
1.189796 0.87084055 -0.00019156933 0
1.2101015 0.8664943 -0.00021386147 0
1.2283379 0.87064117 -0.00023005407 0
1.2505816 0.87194651 -0.00018364191 0
1.2705311 0.8721537 -0.00018103918 0
1.294486 0.87071729 -0.00017517805 0
1.3099809 0.872379 -0.00017619133 0
1.3237401 0.87314343 -0.00026065111 0
1.3457448 0.87621444 -0.00017887354 0
1.3659582 0.87838221 -0.00018030405 0
1.3810194 0.87999737 -0.00018143654 0
1.4093912 0.87099445 -0.0003695488 0
1.4286969 0.87245977 -0.00040125847 0
-1.4890084 0.89098132 -0.00023204088 0
-1.4699938 0.88786441 -0.00023090839 0
-1.4474634 0.88935012 -0.00022681555 0
-1.430528 0.88759053 -0.00025417804 0
-1.4067177 0.89293158 -0.00021868944 0
-1.3871326 0.88966507 -0.00021749735 0
-1.3674091 0.88637555 -0.00021624565 0
-1.3475428 0.88306206 -0.00021493435 0
-1.3325506 0.88056165 -0.00021409988 0
-1.3114909 0.88730621 -0.00034302473 0
-1.254148 0.88889492 -0.00032413006 0
-1.1435236 0.88816094 -0.0020034313 0
-1.0857258 0.89899671 -0.00021755695 0
-1.069036 0.89601684 -0.00021648407 0
-1.0458742 0.88954026 -0.0003722012 0
-1.0296443 0.88898408 -0.00021421909 0
-1.0125437 0.88593107 -0.00021314621 0
-0.99172199 0.88970089 -0.00022250414 0
-0.97072351 0.89336896 -0.0002322197 0
-0.94731396 0.88911861 -0.00023108721 0
-0.86698759 0.88852453 -0.00023794174 0
-0.85324264 0.88931239 -0.00023019314 0
-0.83884287 0.89008391 -0.00069200993 0
-0.64855462 0.89268947 -0.00010561943 0
-0.63245773 0.89105052 -0.00011761983 0
-0.60077578 0.88746858 -0.00012481213 0
-0.58954424 0.89226532 -0.00016629696 0
-0.56633633 0.88868618 -0.00010275841 0
-0.52120173 0.88676357 -0.00013285875 0
-0.51041871 0.89089972 -0.00010222197 0
-0.38168561 0.88750529 -3.8743019e-05 0
-0.33028167 0.88797379 -8.3446503e-07 0
-0.28656825 0.89352936 -1.2834867e-05 0
-0.27966794 0.88624477 -2.3841858e-05 0
-0.18017457 0.8891468 -1.6212463e-05 0
-0.14109905 0.88664931 -7.8082085e-06 0
-0.11224784 0.88863176 -7.0929527e-06 0
0.13069296 0.88931698 -5.3048134e-06 0
0.15081076 0.89260244 -3.6478043e-05 0
0.1907793 0.8912819 -2.8729439e-05 0
0.23108231 0.88866603 -1.0490417e-05 0
0.2824825 0.88814116 -9.5367432e-07 0
0.30349663 0.88859797 -3.7908554e-05 0
0.47880244 0.89051974 -0.00010102987 0
0.58519799 0.88849187 -0.00012803078 0
0.63542128 0.89000821 -0.00014400482 0
0.71354979 0.88897705 -0.00019848347 0
0.76876199 0.89160281 -0.00017130375 0
0.79665244 0.88935447 -0.0001847744 0
0.88556796 0.89075017 -0.00020027161 0
0.91548002 0.88615811 -0.00024306774 0
0.94700515 0.89378965 -0.00025427341 0
1.0293891 0.89022088 -0.00014901161 0
1.0773678 0.88684106 -0.00030004978 0
1.0826504 0.89273059 -0.00029297671 0
1.1492712 0.88867211 -0.00029331446 0
1.2311149 0.89073884 -0.00032705069 0
1.274683 0.88070327 -0.00019669533 0
1.2902652 0.88251364 -0.00019752979 0
1.3108974 0.88491076 -0.00019866228 0
1.330011 0.88828051 -0.00024855137 0
1.35166 0.88964689 -0.00020110607 0
1.3718007 0.89198697 -0.00020235777 0
1.3915279 0.88989562 -0.00019629797 0
1.4099993 0.88951331 -0.0002294302 0
1.4296817 0.89154857 -0.00023684502 0
1.4501529 0.88741153 -0.0001864036 0
1.4744346 0.8900156 -0.00018805265 0
1.4937046 0.89208215 -0.00018948317 0
-1.4932513 0.90736401 -0.00022417307 0
-1.4742366 0.90419269 -0.00022310019 0
-1.4551026 0.90100133 -0.00022166967 0
-1.4277893 0.90103483 -0.00037062168 0
-1.4184104 0.91972136 -0.00036799908 0
-1.3174533 0.9116528 -0.0003452301 0
-1.2584078 0.90717626 -0.00032526255 0
-1.1887685 0.91739345 -0.00022357702 0
-1.1674322 0.91358417 -0.00022238493 0
-1.1466483 0.9081257 -0.0011158288 0
-1.1296493 0.90683866 -0.00022017956 0
-1.1098245 0.91095698 -0.00022885203 0
-1.0933186 0.90798497 -0.00022792816 0
-1.0731974 0.91197491 -0.00023710728 0
-1.0503181 0.90976906 -0.00038447976 0
-1.028213 0.90380716 -0.00023490191 0
-1.0111241 0.90070438 -0.00023412704 0
-0.86985898 0.90715492 -0.00023823977 0
-0.8464281 0.90848392 -0.00054033601 0
-0.65062249 0.91160202 -0.00010663271 0
-0.63046741 0.90958452 -0.00011261304 0
-0.60267365 0.90650606 -0.00012552738 0
-0.59139496 0.91127187 -0.00016665459 0
-0.56810385 0.90776414 -0.00010347366 0
-0.52333093 0.91228867 -0.00013321638 0
-0.51197416 0.91006064 -0.0001026392 0
-0.38274741 0.90685207 -3.939867e-05 0
-0.33114052 0.90737331 -1.5497208e-06 0
-0.28552186 0.91113341 -1.6033649e-05 0
-0.18043804 0.90864539 -1.6868114e-05 0
-0.14124042 0.91267085 -8.4638596e-06 0
-0.11223868 0.90818119 -6.7949295e-06 0
0.13167356 0.90874469 -5.6028366e-06 0
0.15186569 0.91194731 -3.6537647e-05 0
0.19199337 0.91061854 -2.9087067e-05 0
0.23245499 0.90795374 -1.1205673e-05 0
0.28405452 0.90735775 -2.0265579e-06 0
0.30514944 0.9078002 -3.862381e-05 0
0.48110873 0.90938807 -0.00010180473 0
0.58789182 0.90715528 -0.00012898445 0
0.63829064 0.90856385 -0.00014513731 0
0.71669686 0.90740097 -0.00019919872 0
0.77210051 0.90992677 -0.00017273426 0
0.80123067 0.91370428 -0.00018638372 0
0.88931435 0.90890145 -0.0002014637 0
0.91934174 0.90430343 -0.00024425983 0
0.92189813 0.91631508 -0.0002450943 0
0.95083058 0.91191483 -0.00025522709 0
1.0335681 0.90822768 -0.00014939904 0
1.0875394 0.91264075 -0.00029468536 0
1.112169 0.904805 -0.00020116568 0
1.1344233 0.90757906 -0.00020229816 0
1.1538701 0.91161776 -0.00026468438 0
1.1674094 0.91169107 -0.00020432472 0
1.1891459 0.91440058 -0.00020563602 0
1.2106862 0.91708571 -0.00020688772 0
1.2289594 0.91538155 -0.00027871132 0
1.2424638 0.91147149 -0.00030791759 0
1.3324769 0.90815568 -0.00034725666 0
1.4185777 0.90095317 -0.00037288666 0
1.430232 0.90755486 -0.00038921833 0
1.4479244 0.90548038 -0.00027306876 0
1.4702909 0.90342999 -0.00020813942 0
1.4895782 0.90567088 -0.0002091527 0
-1.4089736 0.93852258 -0.00036489964 0
-1.3218938 0.92978501 -0.00034689903 0
-1.308126 0.93870312 -0.00023078918 0
-1.2928557 0.93597686 -0.00022977591 0
-1.2682065 0.93184596 -0.00027778745 0
-1.2517185 0.92863238 -0.00022733212 0
-1.2309062 0.92491663 -0.00022614002 0
-1.2118924 0.92934275 -0.00023427606 0
-1.1927299 0.93367815 -0.0002425909 0
-1.1714228 0.92980957 -0.00024163723 0
-1.1512146 0.92834377 -0.0011301935 0
-1.1282551 0.92197168 -0.00023961067 0
-1.0533022 0.92988837 -0.00053560734 0
-0.87365049 0.93175566 -0.00023877621 0
-0.85206133 0.92991078 -0.00046521425 0
-0.64690793 0.9328903 -0.0001168251 0
-0.63412106 0.92546976 -0.00011640787 0
-0.60517573 0.93160629 -0.00012636185 0
-0.59322906 0.93010783 -0.0001667738 0
-0.57043391 0.93291378 -0.00010454655 0
-0.5249095 0.93121123 -0.0001333952 0
-0.51351154 0.92899942 -0.00010311604 0
-0.38414592 0.9323355 -4.0173531e-05 0
-0.33227158 0.93292159 -2.9802322e-06 0
-0.28619215 0.9303177 -1.6629696e-05 0
-0.1806988 0.92794633 -1.7642975e-05 0
-0.14134511 0.93193901 -8.8214874e-06 0
-0.11222964 0.92748141 -6.5565109e-06 0
0.13264181 0.92792821 -5.7220459e-06 0
0.15291002 0.93109846 -3.6478043e-05 0
0.19319235 0.92971545 -2.9325485e-05 0
0.2342627 0.93335485 -1.2099743e-05 0
0.28612506 0.93266958 -3.3974648e-06 0
0.30678228 0.92677051 -3.9339066e-05 0
0.48338908 0.92804325 -0.00010257959 0
0.59144521 0.93177366 -0.00013041496 0
0.64207667 0.93304706 -0.00014656782 0
0.71981871 0.92567706 -0.0002001524 0
0.72188354 0.93776512 -0.00020051003 0
0.7754069 0.92807406 -0.00017422438 0
0.80463189 0.93179417 -0.00018763542 0
0.89302731 0.92689061 -0.0002027154 0
0.92444128 0.92826426 -0.00024592876 0
0.95462322 0.92988396 -0.00025641918 0
1.0380402 0.93047208 -0.0001095136 0
1.0422605 0.93675625 -0.00027167797 0
1.0896094 0.92957944 -0.00029949349 0
1.1598136 0.93042183 -0.00029683113 0
1.2364249 0.92644304 -0.00030346712 0
1.2512689 0.92464918 -0.00024282932 0
1.2741865 0.92500138 -0.00021064281 0
1.2898169 0.92694974 -0.00021147728 0
1.3053414 0.92888504 -0.00021255016 0
1.3298073 0.92961752 -0.00025884312 0
1.3445442 0.93524855 -0.00026003522 0
1.3665482 0.93651474 -0.00021606684 0
1.386642 0.93901962 -0.00021731853 0
1.4276798 0.93063748 -0.0003759861 0
1.4476902 0.93177855 -0.00040709972 0
-1.4273633 0.95999128 -0.00023782253 0
-1.4127176 0.95737648 -0.00023698807 0
-1.3952154 0.95506048 -0.00027803582 0
-1.3733183 0.95034224 -0.00023460388 0
-1.3534173 0.94678926 -0.00023341179 0
-1.3289413 0.949696 -0.00027656555 0
-1.3106817 0.94977516 -0.00024231276 0
-1.2864969 0.95070314 -0.00024688244 0
-1.2667116 0.94777775 -0.00027330717 0
-1.2452347 0.94321144 -0.0002450943 0
-1.2295997 0.94037259 -0.00024437904 0
-1.1562982 0.94883955 -0.0020269156 0
-1.056752 0.94799542 -0.00053846836 0
-0.90839517 0.95779938 -0.00021469593 0
-0.89037895 0.95438844 -0.00021338463 0
-0.86919528 0.95072633 -0.00022566319 0
-0.84782505 0.94809955 -0.00037395954 0
-0.65062207 0.94853055 -0.00011471908 0
-0.63037306 0.94655931 -0.00010871887 0
-0.60703164 0.95022428 -0.0001270771 0
-0.59504288 0.94873571 -0.00016695261 0
-0.57216191 0.95156527 -0.0001052618 0
-0.52647007 0.94991863 -0.00013375282 0
-0.51503491 0.94776475 -0.00010359287 0
-0.38518223 0.9512192 -4.0888786e-05 0
-0.33310956 0.9518503 -3.695488e-06 0
-0.28685585 0.94931352 -1.7106533e-05 0
-0.1809563 0.94700623 -1.8358231e-05 0
-0.1414485 0.95096606 -9.2983246e-06 0
-0.11221773 0.9528926 -6.377697e-06 0
0.13391687 0.95318973 -6.1988831e-06 0
0.15394153 0.95001334 -3.6716461e-05 0
0.19437958 0.94862485 -2.9683113e-05 0
0.2356021 0.95217419 -1.2874603e-05 0
0.28765941 0.95142615 -4.4107437e-06 0
0.3089335 0.95176393 -4.0233135e-05 0
0.48639572 0.95264101 -0.00010353327 0
0.59408212 0.95004249 -0.00013124943 0
0.64488709 0.95122111 -0.0001475811 0
0.72393626 0.94978213 -0.00020122528 0
0.77868813 0.94608355 -0.00017559528 0
0.78085929 0.95799947 -0.00017678738 0
0.80800152 0.94971555 -0.00018870831 0
0.89793456 0.95066613 -0.00020432472 0
0.92822969 0.94606471 -0.00024724007 0
0.9583903 0.9477309 -0.00025784969 0
0.96088439 0.95954895 -0.00025832653 0
1.0432076 0.94976306 -0.00015044212 0
1.0957413 0.95064163 -0.00029951334 0
1.1642802 0.94810987 -0.00029850006 0
1.2472934 0.94988561 -0.00033196807 0
1.3444221 0.9495275 -0.00035142899 0
1.4065897 0.94150627 -0.00021857023 0
1.4286327 0.94542813 -0.00027247271 0
1.4484859 0.94741362 -0.00028355917 0
1.465601 0.94886225 -0.0002220273 0
1.4898347 0.9518832 -0.00022343795 0
-1.490025 0.97117865 -0.00024163723 0
-1.4708743 0.96775955 -0.00024044514 0
-1.4480432 0.9691267 -0.00024425983 0
-1.4299018 0.97130167 -0.00024847192 0
-1.4067388 0.97253531 -0.00025260448 0
-1.3880022 0.97146386 -0.00028745335 0
-1.3672117 0.9653585 -0.00025075674 0
-1.3472476 0.96173358 -0.00024974346 0
-1.332145 0.97164357 -0.00035071373 0
-1.2724128 0.96727991 -0.00032925606 0
-1.1613249 0.97271514 -0.0020363331 0
-1.1588172 0.9608047 -0.0020315647 0
-1.0613136 0.97193819 -0.00054204464 0
-1.0137045 0.97773731 -0.00022274256 0
-0.99070519 0.97338283 -0.00022089481 0
-0.96748137 0.96898592 -0.00021916628 0
-0.94991946 0.96566093 -0.00021779537 0
-0.93221027 0.96230811 -0.00021648407 0
-0.88018405 0.9741466 -0.00023972988 0
-0.86849284 0.97030163 -0.00023579597 0
-0.85031766 0.97232574 -0.00054764748 0
-0.83115935 0.97379708 -0.00023263693 0
-0.8063097 0.96893644 -0.00023090839 0
-0.650904 0.9697789 -0.00011876225 0
-0.6329366 0.97109592 -0.00011003017 0
-0.60886753 0.96864069 -0.00012767315 0
-0.59743512 0.97330284 -0.00016731024 0
-0.5738709 0.97001183 -0.00010591745 0
-0.52801657 0.96845806 -0.00013399124 0
-0.51654112 0.96631819 -0.00010412931 0
-0.38620633 0.96988094 -4.1246414e-05 0
-0.33393759 0.97055292 -4.6491623e-06 0
-0.2875115 0.96807981 -1.7642975e-05 0
-0.18129544 0.97210705 -1.9311905e-05 0
-0.14155084 0.96980512 -9.7751617e-06 0
-0.11220892 0.97171474 -6.1988831e-06 0
0.13486147 0.97190428 -6.4373016e-06 0
0.15496291 0.96874368 -3.6597252e-05 0
0.19555245 0.96730554 -2.9981136e-05 0
0.23692545 0.97076905 -1.335144e-05 0
0.28917569 0.96996176 -5.4240227e-06 0
0.31052801 0.97028911 -4.0888786e-05 0
0.488626 0.97088706 -0.00010430813 0
0.59669167 0.96812135 -0.00013244152 0
0.64766902 0.96921134 -0.00014853477 0
0.72699153 0.96766865 -0.00020188093 0
0.78301805 0.96984899 -0.00017750263 0
0.81245315 0.97339249 -0.00019019842 0
0.90158308 0.9683435 -0.00020551682 0
0.93323827 0.96959865 -0.00024878979 0
0.96336657 0.97130847 -0.0002592802 0
1.0472881 0.96734476 -0.00015079975 0
1.0971386 0.96993697 -0.00030553341 0
1.1043043 0.97227287 -0.00029695034 0
1.1701932 0.97152609 -0.00030064583 0
1.2520854 0.96740496 -0.00033336878 0
1.2604355 0.97586405 -0.00031387806 0
1.3494921 0.96708763 -0.00035315752 0
1.4367075 0.96007872 -0.00037932396 0
1.4486837 0.96642983 -0.0003952384 0
1.460801 0.97272563 -0.00041103363 0
-1.493871 0.9883557 -0.0002566576 0
-1.4698976 0.98400295 -0.00025546551 0
-1.450606 0.9805001 -0.00025451183 0
-1.3803115 0.99562812 -0.00035655499 0
-1.3364968 0.98941302 -0.00035250187 0
-1.2779325 0.99096811 -0.00033074617 0
-1.1650634 0.99047327 -0.0020429492 0
-1.1255655 0.99891561 -0.00023120642 0
-1.1091082 0.99579972 -0.00022983551 0
-1.0925313 0.9926613 -0.00022864342 0
-1.0684125 0.98888004 -0.00033303103 0
-1.0477978 0.98419201 -0.00022524595 0
-1.0308175 0.98097718 -0.00022387505 0
-0.9515422 0.99734366 -0.00024044514 0
-0.92795581 0.9927302 -0.00023895502 0
-0.91011786 0.98924112 -0.00023782253 0
-0.88753599 0.98888671 -0.00023841858 0
-0.87001204 0.98535413 -0.00023452441 0
-0.85421151 0.99371815 -0.00070828199 0
-0.65113848 0.99081677 -0.00012274584 0
-0.634839 0.98930359 -0.00011110306 0
-0.6112892 0.99293411 -0.00012850761 0
-0.5992099 0.99153054 -0.00016736984 0
-0.5755651 0.98829818 -0.00010669231 0
-0.52954602 0.98679245 -0.00013417006 0
-0.51852703 0.99078166 -0.00010466576 0
-0.38722098 0.98836887 -4.196167e-05 0
-0.33475775 0.98907924 -5.6028366e-06 0
-0.28837535 0.99280357 -1.8209219e-05 0
-0.18154669 0.99070394 -1.9907951e-05 0
-0.14165194 0.98841447 -1.0192394e-05 0
-0.1122002 0.99030739 -5.9604645e-06 0
0.13579468 0.99039352 -6.5565109e-06 0
0.15597203 0.98724896 -3.6537647e-05 0
0.19709769 0.99191678 -3.0457973e-05 0
0.23823635 0.98918819 -1.4066696e-05 0
0.29067782 0.98832488 -6.3180923e-06 0
0.31210417 0.98860025 -4.1544437e-05 0
0.49083227 0.98893666 -0.00010502338 0
0.59927976 0.98605204 -0.00013327599 0
0.60099113 0.99790871 -0.00013387203 0
0.65134144 0.9929601 -0.00014984608 0
0.73102659 0.99129081 -0.00020307302 0
0.78623283 0.98749304 -0.00017905235 0
0.81576198 0.99098992 -0.00019168854 0
0.90742028 0.98986912 -0.00021008651 0
0.93293536 0.99278122 -0.00022909045 0
0.94940758 0.98824292 -0.00019949675 0
0.97020853 0.990192 -0.0002309382 0
0.99115479 0.9940123 -0.00020313263 0
1.0088062 0.99645162 -0.00020450354 0
1.0263391 0.9988746 -0.00020611286 0
1.0526867 0.99060774 -0.00015127659 0
1.0999119 0.98159313 -0.00030624866 0
1.1056385 0.99142337 -0.00030267239 0
1.1745969 0.98896563 -0.00030207634 0
1.2516444 0.98797822 -0.0003554821 0
1.2652687 0.99318194 -0.00031518936 0
1.356212 0.99036211 -0.00035524368 0
1.445658 0.98926795 -0.0003824234 0
1.4663737 0.99012941 -0.00041288137 0
-1.4959658 1.0089219 -0.00038027763 0
-1.3706363 1.014904 -0.00035345554 0
-1.3422579 1.0129378 -0.00035452843 0
-1.339383 1.0011981 -0.00035345554 0
-1.2820441 1.0086131 -0.00033199787 0
-1.2274947 1.0182135 -0.00023901463 0
-1.2116528 1.0152142 -0.00023782253 0
-1.1903917 1.011189 -0.0002361536 0
-1.1694858 1.0105534 -0.0011433661 0
-1.1473535 1.0030407 -0.00023287535 0
-1.0655658 1.011166 -0.00044747195 0
-1.0493014 1.0164651 -0.00024700165 0
-1.0323243 1.0131445 -0.00024580956 0
-1.0095152 1.008683 -0.00024425983 0
-0.98649216 1.0041797 -0.00024282932 0
-0.96908748 1.0007755 -0.00024163723 0
-0.885683 1.0098253 -0.00024068356 0
-0.87160009 1.0106688 -0.00023496151 0
-0.85684896 1.0115032 -0.00071108341 0
-0.66132581 1.0094938 -0.00011229515 0
-0.64895314 1.0084776 -0.00012934208 0
-0.63672161 1.0073218 -0.00011205673 0
-0.60500622 1.0100312 -0.0001547734 0
-0.57724106 1.0063889 -0.00010734797 0
-0.52770877 1.0102907 -0.00012485187 0
-0.38822395 1.0066445 -4.2617321e-05 0
-0.33556834 1.00739 -6.3180923e-06 0
-0.30436355 1.0080631 -4.7683716e-07 0
-0.28901559 1.0111284 -1.8775463e-05 0
-0.18179494 1.0090785 -2.0623207e-05 0
-0.14178513 1.0129296 -1.0848045e-05 0
-0.11219157 1.0087206 -5.7220459e-06 0
0.13671906 1.0087068 -6.9141388e-06 0
0.15730163 1.011631 -3.6418438e-05 0
0.19824302 1.0101583 -3.0755997e-05 0
0.23953196 1.0073932 -1.4662743e-05 0
0.29216272 1.0064772 -7.212162e-06 0
0.31418172 1.0127376 -4.2378902e-05 0
0.49374282 1.0127475 -0.00010597706 0
0.60269219 1.0096943 -0.00013446808 0
0.65406877 1.0105972 -0.00015091896 0
0.73402447 1.0088415 -0.00020372868 0
0.79048038 1.0108061 -0.0001809001 0
0.8179521 1.0026383 -0.00019228458 0
0.82013047 1.0142254 -0.00019288063 0
0.90998393 1.0090454 -0.00020819902 0
0.93619013 1.0013019 -0.00021874905 0
0.94507223 1.0066185 -0.00023555756 0
0.96909618 1.0087769 -0.0002412796 0
0.9899984 1.0089004 -0.00022256374 0
1.0135214 1.0122221 -0.00022417307 0
1.0344838 1.0075859 -0.00021624565 0
1.0519313 1.0104418 -0.00019292832 0
1.0651385 1.0116336 -0.00023126602 0
1.0895002 1.0076032 -0.00021123886 0
1.1105762 1.0093756 -0.00027380389 0
1.1344206 1.013811 -0.00021505356 0
1.1510624 1.0161109 -0.00021648407 0
1.1708932 1.0124385 -0.00024628639 0
1.1804242 1.012043 -0.0003041029 0
1.2578318 1.0110669 -0.00035727024 0
1.2700779 1.0104134 -0.0003169775 0
1.362885 1.0134742 -0.00035750866 0
1.4527677 1.0124545 -0.0003849864 0
1.4737656 1.0132164 -0.00041496754 0
-1.4856709 1.0271277 -0.00037693977 0
-1.3608996 1.0343034 -0.00035059452 0
-1.3446978 1.0335398 -0.00031999749 0
-1.3257717 1.0368201 -0.00024646521 0
-1.305357 1.0329552 -0.00024497509 0
-1.2874045 1.0274403 -0.00030326843 0
-1.2744653 1.0271063 -0.00024247169 0
-1.2536845 1.0231719 -0.00024092197 0
-1.2380023 1.020203 -0.0002399683 0
-1.1736952 1.0314734 -0.0020589828 0
-1.1542331 1.0369895 -0.00025379658 0
-1.1324894 1.0327365 -0.00025236607 0
-1.1105651 1.0284481 -0.00025099516 0
-1.0884542 1.0241232 -0.00024938583 0
-1.0722678 1.0274773 -0.00045017403 0
-0.88839811 1.0274414 -0.00024110079 0
-0.87021053 1.0344203 -0.0003954967 0
-0.8585946 1.0232736 -0.00071299076 0
-0.66468209 1.0346947 -0.00014440219 0
-0.65085936 1.0263072 -0.00013011694 0
-0.63920593 1.0311005 -0.00011330843 0
-0.60907412 1.0310837 -0.00014871359 0
-0.58000165 1.0361855 -0.00010859966 0
-0.57890296 1.0243269 -0.00010812283 0
-0.52532476 1.0275564 -0.00011535486 0
-0.3895461 1.0307375 -4.3332577e-05 0
-0.33663687 1.0315251 -7.5697899e-06 0
-0.30505359 1.0261984 -1.3113022e-06 0
-0.28964844 1.0292416 -1.9192696e-05 0
-0.18212205 1.0332897 -2.1636486e-05 0
-0.14188385 1.0310981 -1.1324883e-05 0
-0.11218305 1.0269156 -5.6624413e-06 0
0.13763256 1.0268058 -6.9737434e-06 0
0.15828718 1.0297036 -3.6597252e-05 0
0.19937503 1.0281889 -3.0934811e-05 0
0.24123968 1.0313886 -1.5437603e-05 0
0.29412025 1.0304072 -8.5830688e-06 0
0.31572244 1.0306377 -4.3034554e-05 0
0.49590278 1.0304186 -0.00010669231 0
0.60522366 1.0272324 -0.00013548136 0
0.65676987 1.0280641 -0.00015187263 0
0.7369948 1.0262303 -0.00020462275 0
0.79468268 1.0338709 -0.00018268824 0
0.82337582 1.031485 -0.00019431114 0
0.91472018 1.0319921 -0.00020980835 0
0.94554484 1.0274243 -0.0002527833 0
0.9755969 1.0292542 -0.0002630949 0
1.058545 1.0264726 -2.5391579e-05 0
1.0706139 1.0253217 -0.0002540946 0
1.0940608 1.023595 -0.00022995472 0
1.1145035 1.0304602 -0.00029096604 0
1.1277752 1.0283558 -0.00023239851 0
1.1499997 1.0314941 -0.00023388863 0
1.17203 1.034605 -0.00023549795 0
1.1893611 1.0294429 -0.00025413436 0
1.2107992 1.0296035 -0.00022713344 0
1.2326304 1.0273833 -0.0002233386 0
1.2539566 1.0303304 -0.00022512674 0
1.2695012 1.031114 -0.00031623841 0
1.2856302 1.0347075 -0.00022780895 0
1.3065429 1.0375977 -0.00022959709 0
1.322129 1.0397516 -0.00023090839 0
1.3678616 1.0307099 -0.00035953522 0
1.4580723 1.0297542 -0.00038683414 0
1.4792824 1.0304453 -0.00041687489 0
-1.4753188 1.0454352 -0.00037384033 0
-1.4406061 1.0585614 -0.0002553463 0
-1.4258552 1.0557687 -0.0002540946 0
-1.4060893 1.0520265 -0.00025266409 0
-1.3862021 1.0482612 -0.00025117397 0
-1.3661897 1.0444722 -0.00024956465 0
-1.3516673 1.0506985 -0.00032812357 0
-1.2915382 1.0493579 -0.00033462048 0
-1.2656419 1.0587809 -0.00026106834 0
-1.2499893 1.0557191 -0.00025993586 0
-1.2289922 1.0516123 -0.00025856495 0
-1.2078383 1.0474745 -0.00025719404 0
-1.1865221 1.0433052 -0.00025576353 0
-1.1750455 1.0459502 -0.0014620225 0
-1.0769374 1.0539422 -0.00055462122 0
-0.89198649 1.0507234 -0.00024169683 0
-0.86787415 1.0521402 -0.00055722398 0
-0.74984407 1.0564303 -0.00021529198 0
-0.73081279 1.0521579 -0.00021326542 0
-0.71160913 1.0478468 -0.00021111965 0
-0.69226456 1.0435038 -0.00020885468 0
-0.6725589 1.0457079 -0.00016105175 0
-0.6492672 1.0494795 -0.00012564659 0
-0.61133254 1.0532734 -0.00017789006 0
-0.58163607 1.053827 -0.00010925531 0
-0.52895999 1.0486104 -0.00012075901 0
-0.39052674 1.0486059 -4.3869019e-05 0
-0.33742923 1.0494219 -8.5830688e-06 0
-0.30596322 1.0501037 -2.3841858e-06 0
-0.29212439 1.0508153 -1.7444294e-05 0
-0.18236454 1.051237 -2.2411346e-05 0
-0.14198141 1.0490547 -1.1742115e-05 0
-0.11217183 1.0508916 -5.364418e-06 0
0.13883655 1.0506592 -7.3313713e-06 0
0.15926141 1.0475687 -3.6478043e-05 0
0.20086727 1.0519559 -3.1471252e-05 0
0.24250604 1.0491818 -1.6212463e-05 0
0.29605174 1.0540185 -9.7751617e-06 0
0.31724614 1.0483401 -4.3749809e-05 0
0.49804056 1.0479078 -0.00010728836 0
0.60856605 1.0503885 -0.00013673306 0
0.65945029 1.0453981 -0.00015282631 0
0.66122389 1.0568671 -0.00015354156 0
0.73994356 1.043493 -0.00020539761 0
0.7418952 1.0549184 -0.00020587444 0
0.79361427 1.0538605 -0.00021672249 0
0.81482995 1.051224 -0.00023138523 0
0.8289901 1.0515525 -0.0002069076 0
0.85043275 1.0490855 -0.00023055077 0
0.86909199 1.0520945 -0.00023186207 0
0.88758576 1.0550768 -0.00023329258 0
0.9141013 1.0557005 -0.00022717318 0
0.95038557 1.050169 -0.00025433302 0
0.97800815 1.0406787 -0.00026369095 0
0.98040843 1.0520509 -0.00026452541 0
1.0659742 1.0478616 -0.00015252829 0
1.1163009 1.0504768 -0.00031042099 0
1.1241325 1.0523977 -0.00030457973 0
1.190509 1.0519803 -0.00030767918 0
1.2262938 1.0422678 -0.00023949146 0
1.2476892 1.045289 -0.00024086237 0
1.2714992 1.0480551 -0.0002913177 0
1.2875756 1.0528048 -0.00026965141 0
1.3108815 1.0542126 -0.00024551153 0
1.3319105 1.0518219 -0.00024179618 0
1.3476356 1.0486515 -0.00023806095 0
1.3705854 1.046995 -0.00029784441 0
1.3886762 1.0489483 -0.00023657084 0
1.4088539 1.0517367 -0.00023818016 0
1.4288983 1.0545068 -0.0002399087 0
1.4488138 1.0572591 -0.00024163723 0
1.4634576 1.0510812 -0.0003401041 0
1.484772 1.0475905 -0.000418365 0
-1.4931335 1.0708756 -0.00036248565 0
-1.4686527 1.0640422 -0.00028586388 0
-1.4504017 1.060416 -0.00025606155 0
-1.3679208 1.0787863 -0.00026750565 0
-1.3508219 1.0740286 -0.00030937791 0
-1.3325052 1.071859 -0.00026535988 0
-1.3120878 1.0678655 -0.00026410818 0
