# .PCD v0.7 - Point Cloud Data file format
VERSION 0.7
FIELDS x y z rgb
SIZE 4 4 4 4
TYPE F F F F
COUNT 1 1 1 1
WIDTH 1373
HEIGHT 1
VIEWPOINT 0 0 0 1 0 0 0
POINTS 1373
DATA ascii
0.30563733 -0.25126597 1.8710271 0
0.33133689 -0.25116152 1.8669025 0
0.34099633 -0.25083601 1.876824 0
0.29988056 -0.22706056 1.879357 0
0.30461892 -0.23247495 1.871464 0
0.33009669 -0.22979923 1.8686794 0
0.34065866 -0.22649959 1.8760309 0
0.30852759 -0.2101025 1.8702655 0
0.33228976 -0.20603032 1.8706778 0
0.3422122 -0.21397844 1.8792533 0
0.29994178 -0.19028044 1.878124 0
0.30467749 -0.18840873 1.8729193 0
0.33185309 -0.1919115 1.8690145 0
0.34093982 -0.18927795 1.8774461 0
-0.38398147 -0.16681078 1.8705029 0
-0.37073553 -0.17434855 1.8716218 0
-0.35008931 -0.1693099 1.8714451 0
0.29970026 -0.17810859 1.8798404 0
0.30678537 -0.17128372 1.8707485 0
0.33294189 -0.16714832 1.8692068 0
-0.38684681 -0.14886855 1.8706391 0
-0.34485134 -0.14893666 1.8691969 0
-0.33796611 -0.15170434 1.8795662 0
0.29974025 -0.15007734 1.8799287 0
0.3075448 -0.14826193 1.8702012 0
0.33382481 -0.14732054 1.8696189 0
0.34100044 -0.14746067 1.8777674 0
-0.38270831 -0.13597594 1.8661435 0
-0.37202281 -0.13350959 1.8694063 0
-0.35429525 -0.13453102 1.870204 0
0.29933178 -0.12863195 1.8792771 0
0.30623433 -0.12910464 1.8709005 0
0.32956943 -0.13181558 1.8683929 0
0.3421706 -0.1342382 1.8797212 0
0.29997221 -0.11975574 1.8766651 0
0.30401275 -0.10890464 1.8721389 0
0.33222267 -0.11182152 1.8664764 0
0.3411665 -0.10984747 1.8750989 0
0.29895413 -0.086708188 1.8760766 0
0.30770904 -0.088887334 1.8705728 0
0.33295146 -0.086780474 1.8684281 0
0.34238333 -0.086701483 1.8771472 0
0.3043026 -0.068438977 1.8717883 0
0.33412665 -0.07267876 1.8687074 0
0.34299335 -0.066492334 1.8782787 0
0.30890042 -0.050672401 1.8693373 0
0.33571926 -0.050717242 1.8704197 0
0.34338266 -0.052059691 1.878757 0
0.30855787 -0.030276621 1.8694432 0
0.33564243 -0.030276403 1.8694867 0
0.34346291 -0.029199667 1.8788739 0
0.29988995 -0.016106114 1.8791893 0
0.30760676 -0.008406111 1.8708017 0
0.33874941 -0.007014276 1.8709886 0
0.34315026 -0.0066522546 1.8782835 0
0.29894897 0.0088630915 1.878943 0
0.30348912 0.0095389374 1.8740269 0
0.33318374 0.0097354073 1.8685235 0
0.34253269 0.012944665 1.8771636 0
0.29866862 0.034313321 1.8786256 0
0.30399004 0.029500782 1.8734673 0
0.33494782 0.030607224 1.8681229 0
0.34167358 0.031275935 1.8756109 0
0.30718511 0.049989149 1.8710477 0
0.33281863 0.051101573 1.8672786 0
0.34065542 0.047324996 1.8738739 0
0.30568257 0.069686398 1.8718529 0
0.33369088 0.070788749 1.8691086 0
0.34168229 0.068679646 1.878512 0
0.30532178 0.09075316 1.8724798 0
0.33364451 0.094031714 1.8696893 0
0.34033865 0.083301902 1.8761911 0
0.29976937 0.102494 1.8775963 0
0.30621758 0.11091008 1.8703054 0
0.33427939 0.10670597 1.8687867 0
0.34182906 0.11106953 1.8783087 0
-0.38336667 0.13666664 1.8670877 0
-0.37243578 0.13324422 1.8713087 0
-0.35124269 0.13606179 1.871276 0
0.29930902 0.12777841 1.876235 0
0.30697203 0.12800451 1.8728143 0
0.33459845 0.12911099 1.8706385 0
0.34160745 0.13119517 1.8775444 0
-0.38982409 0.15164997 1.8688414 0
-0.34424886 0.15062129 1.8690271 0
-0.33941513 0.15527284 1.8779081 0
0.30807585 0.14935659 1.8706728 0
0.33272347 0.14981234 1.869478 0
0.34138569 0.14875109 1.8769177 0
-0.384238 0.16579485 1.8701477 0
-0.36964059 0.17400515 1.8694227 0
-0.35125071 0.1698235 1.8712109 0
0.29932031 0.1761688 1.879791 0
0.30564553 0.16629194 1.872383 0
0.33522701 0.16900797 1.8699546 0
0.3419483 0.17434952 1.8773543 0
0.29762873 0.19708133 1.8797348 0
0.30692557 0.18885395 1.8708992 0
0.33393416 0.19202301 1.8703862 0
0.34313187 0.19361746 1.8790445 0
0.30847448 0.21399669 1.8711939 0
0.33311936 0.21163233 1.8698334 0
0.3420105 0.20908447 1.876969 0
0.29947329 0.23099571 1.8798485 0
0.30727291 0.23238537 1.8716739 0
0.33571947 0.2278869 1.8691826 0
0.34185556 0.22950053 1.8763058 0
0.30593023 0.2495482 1.8713566 0
0.32978716 0.25142449 1.866607 0
0.34192729 0.24916619 1.8759403 0
0.29937094 0.26629648 1.8782444 0
0.30683121 0.27118501 1.8705904 0
0.3377068 0.26807302 1.8685249 0
0.34186208 0.26995239 1.8756636 0
0.29964411 0.2955454 1.8777359 0
0.30404869 0.28895918 1.8721371 0
0.33436933 0.2903859 1.8681405 0
0.34180936 0.2910704 1.8770311 0
0.29810005 0.31110835 1.8795087 0
0.30411744 0.31290761 1.8730044 0
0.33312127 0.31087372 1.8696039 0
0.34217727 0.31244239 1.8773272 0
0.30648056 0.32822934 1.8705837 0
0.33265719 0.32709995 1.8675525 0
0.3418574 0.33220631 1.8763231 0
0.29923385 0.3550117 1.8782268 0
0.30432159 0.349435 1.8728344 0
0.33265018 0.34908235 1.8682833 0
0.34176373 0.35343838 1.8754071 0
0.29987693 0.37071562 1.8788948 0
0.30653191 0.3699272 1.8720512 0
0.33506346 0.36847049 1.869193 0
0.34277177 0.36886668 1.878517 0
0.30413428 0.38941666 1.8732899 0
0.33229744 0.39140531 1.8684174 0
0.34154889 0.39183405 1.875756 0
0.2991091 0.4123086 1.8789047 0
0.30819389 0.41135046 1.8686587 0
0.33083728 0.40685755 1.8680075 0
0.34190673 0.40938133 1.876431 0
0.29892254 0.43862513 1.8796751 0
0.30518514 0.42880052 1.872424 0
0.337547 0.42804348 1.8690805 0
0.34221819 0.43237635 1.8770821 0
0.29935992 0.4489212 1.8779037 0
0.30513832 0.4507024 1.8719668 0
0.33212838 0.4483839 1.8684882 0
0.34162968 0.45751357 1.8755836 0
0.29910469 0.47720969 1.8781658 0
0.30508727 0.47056159 1.8717077 0
0.33396509 0.46909937 1.8694637 0
0.34229177 0.47314185 1.8766886 0
0.30452311 0.48898369 1.8727936 0
0.33100051 0.4939321 1.8669499 0
0.34144214 0.49392232 1.8752445 0
0.29918665 0.5166229 1.8796141 0
0.30698067 0.50823325 1.8705722 0
0.33359534 0.51115191 1.8682566 0
0.34218428 0.51119894 1.876297 0
0.30459949 0.53046352 1.8724242 0
0.33444056 0.52867091 1.8690475 0
0.3420321 0.53150034 1.8760841 0
0.299402 0.5566597 1.8780621 0
0.30532891 0.54779828 1.8728077 0
0.335361 0.54886192 1.8675435 0
0.34260422 0.54983163 1.8770541 0
0.3058235 0.56891239 1.8718212 0
0.33235842 0.56973046 1.8686787 0
0.34229758 0.5700686 1.8765697 0
-0.38725239 0.5928064 1.8676904 0
-0.37209958 0.58484405 1.8692887 0
-0.34896088 0.5904364 1.8685331 0
-0.33971447 0.59775436 1.8742735 0
0.29879823 0.58477771 1.8786867 0
0.3060714 0.59088886 1.8706524 0
0.32959616 0.5870347 1.8661374 0
0.35221934 0.58425212 1.8686762 0
0.36724812 0.59140235 1.8682243 0
-0.39333439 0.6113953 1.869408 0
-0.34185639 0.61778444 1.866099 0
-0.33688468 0.61355877 1.8719424 0
0.27246615 0.60898674 1.8789545 0
0.29188746 0.61194932 1.8757075 0
0.30898774 0.61117566 1.8684218 0
0.37440631 0.60710758 1.8721787 0
0.3813777 0.61056018 1.8640082 0
-0.38492298 0.62933111 1.8690211 0
-0.36950117 0.63491035 1.8696918 0
-0.34962097 0.63044637 1.8703911 0
0.29610044 0.62065381 1.8795283 0
0.31409651 0.62723339 1.8733449 0
0.32786366 0.63189113 1.8686371 0
0.35016596 0.63473225 1.8678303 0
0.36628541 0.62917906 1.8716351 0
-0.38155919 -0.62757444 1.8839467 0
-0.36847338 -0.6341691 1.891713 0
-0.34941599 -0.63442409 1.8889314 0
-0.33187738 -0.6272499 1.8915005 0
0.010195548 -0.62102461 1.8994836 0
0.033233613 -0.621113 1.8986963 0
0.051060833 -0.62255001 1.8988543 0
0.069507472 -0.62252969 1.8978987 0
0.089698583 -0.62391841 1.8977028 0
0.11113454 -0.6250422 1.8978318 0
0.13153173 -0.6238851 1.896522 0
0.15034355 -0.62578112 1.8966205 0
0.16973014 -0.62722254 1.8965472 0
0.19011973 -0.62767941 1.895804 0
0.21107647 -0.6291942 1.8957417 0
0.23116545 -0.62834346 1.8943756 0
0.25055507 -0.62889302 1.8935958 0
0.27067029 -0.6293726 1.8903899 0
0.29036665 -0.63195783 1.8888849 0
0.30926216 -0.63476944 1.8886584 0
0.32894287 -0.63558918 1.8896775 0
0.34759536 -0.63302273 1.8865367 0
-0.38648033 -0.60835671 1.8904761 0
-0.32563087 -0.61045939 1.8891333 0
-0.31654546 -0.60831529 1.8970226 0
-0.11230138 -0.6116209 1.8999157 0
-0.088404931 -0.61140251 1.8984158 0
-0.066436663 -0.61223543 1.8987312 0
-0.048865985 -0.6119802 1.897609 0
-0.031520147 -0.6101619 1.8977545 0
-0.0089538088 -0.61465394 1.8970852 0
0.0094278781 -0.61231184 1.8961134 0
0.02913185 -0.61238277 1.8956919 0
0.049376197 -0.61201501 1.894872 0
0.070799291 -0.61557025 1.8940554 0
0.091990694 -0.61309403 1.893227 0
0.11078 -0.61547083 1.8923919 0
0.12912573 -0.61386716 1.8911235 0
0.15078121 -0.61449671 1.8901345 0
0.16995661 -0.61218005 1.8893903 0
0.18881324 -0.61309916 1.888846 0
0.20896097 -0.61373162 1.8873566 0
0.22867279 -0.61347467 1.8863926 0
0.25179252 -0.61410058 1.8856657 0
0.26851934 -0.61151433 1.8816235 0
0.28430769 -0.61972392 1.8803425 0
0.35568237 -0.60916561 1.8968799 0
0.36677638 -0.60914302 1.8876784 0
-0.38291025 -0.59707272 1.8854588 0
-0.37025854 -0.58669537 1.8895843 0
-0.34839067 -0.58592242 1.8917294 0
-0.33442837 -0.59112751 1.8909762 0
-0.31455609 -0.58949393 1.8985089 0
-0.02072227 -0.59980118 1.8994977 0
-0.016396232 -0.59865451 1.8999126 0
0.058087274 -0.59963799 1.8965924 0
0.068548217 -0.59870088 1.8966694 0
0.090667814 -0.59747463 1.8964331 0
0.11233771 -0.59707928 1.8956776 0
0.12713467 -0.5952391 1.8954239 0
0.14939401 -0.59698081 1.8940969 0
0.16861375 -0.58986253 1.8969194 0
0.18721202 -0.58933377 1.8969319 0
0.20938286 -0.59316319 1.8934401 0
0.2301167 -0.59345639 1.8937136 0
0.2521683 -0.59398609 1.8941697 0
0.2708759 -0.59055877 1.891785 0
0.29286313 -0.58813488 1.887712 0
0.35013652 -0.58772367 1.8923353 0
0.36031055 -0.59825975 1.885797 0
-0.34373477 -0.57050705 1.8971846 0
-0.33154255 -0.56812167 1.8981512 0
-0.31657946 -0.56889802 1.8970904 0
0.29642242 -0.56761545 1.8865159 0
0.30006263 -0.56062955 1.88009 0
0.34645033 -0.56966949 1.8896121 0
-0.34388041 -0.54275393 1.8986552 0
-0.33054 -0.55261946 1.8976078 0
-0.31570241 -0.55479944 1.8977473 0
0.29544869 -0.54956639 1.8884945 0
0.3001664 -0.54499298 1.8809733 0
0.34761962 -0.54944164 1.8910679 0
-0.34207562 -0.52811742 1.899255 0
-0.33255747 -0.52856493 1.8972276 0
-0.31510904 -0.53087872 1.8981329 0
0.29562718 -0.52905613 1.8883628 0
0.34678549 -0.53179371 1.8891516 0
-0.34331906 -0.50737017 1.8989646 0
-0.32683909 -0.51136446 1.8970009 0
-0.31336746 -0.50856006 1.8983223 0
0.29596621 -0.50984246 1.8888066 0
0.34721819 -0.51018566 1.889972 0
-0.34275243 -0.48854882 1.8967847 0
-0.32988873 -0.48960873 1.8968056 0
-0.31601399 -0.48702484 1.8981165 0
0.29576442 -0.48945963 1.8888227 0
0.30024254 -0.49026167 1.8806645 0
0.34743869 -0.49099454 1.8912418 0
-0.34408769 -0.47271806 1.8975244 0
-0.32875037 -0.47091532 1.8973696 0
-0.31501389 -0.467421 1.8985772 0
0.29480845 -0.47137061 1.8897544 0
0.346394 -0.47139561 1.8892925 0
-0.34268755 -0.44780904 1.8987774 0
-0.33052045 -0.44660589 1.8975003 0
-0.31343827 -0.45196474 1.8976995 0
0.29595912 -0.45096767 1.8889402 0
0.34717613 -0.45278406 1.8891748 0
-0.34368622 -0.43132865 1.8987221 0
-0.32888198 -0.43510288 1.8965997 0
-0.31295764 -0.43455493 1.8985306 0
0.29550889 -0.42985296 1.8891286 0
0.34680092 -0.43182138 1.8896341 0
-0.34172857 -0.41353214 1.8977952 0
-0.33200899 -0.40871137 1.8969377 0
-0.31654996 -0.41417035 1.897699 0
0.29633337 -0.4098866 1.8880991 0
0.34810388 -0.40833649 1.8915522 0
-0.34343043 -0.39300463 1.8969483 0
-0.32883963 -0.38697481 1.8976368 0
-0.31508583 -0.38069761 1.895472 0
0.2952542 -0.3901034 1.8885585 0
0.34642091 -0.39153376 1.8887548 0
-0.34302944 -0.36915439 1.8982317 0
-0.32719436 -0.37231231 1.8968639 0
-0.31401789 -0.36967543 1.8963646 0
0.29546139 -0.37156042 1.8900465 0
0.30060449 -0.37215626 1.880085 0
0.3469902 -0.37300116 1.8881441 0
-0.3427546 -0.3454935 1.8973526 0
-0.33323509 -0.35158116 1.8973172 0
-0.31354472 -0.34827176 1.8985634 0
0.29563329 -0.35123608 1.8887168 0
0.30020994 -0.34874451 1.8809307 0
0.3468799 -0.3496508 1.8896224 0
-0.34310737 -0.33256894 1.8984694 0
-0.33101541 -0.32993844 1.8974652 0
-0.3132056 -0.33190066 1.8993371 0
0.29545641 -0.33226219 1.8898277 0
0.34770852 -0.32857811 1.8913747 0
-0.34315774 -0.31487823 1.8983339 0
-0.32766661 -0.30420786 1.8976316 0
-0.31526041 -0.31042302 1.8971355 0
0.29543522 -0.30888873 1.8884776 0
0.34740224 -0.31021175 1.8879606 0
-0.34343418 -0.28655943 1.8985548 0
-0.33614179 -0.2908873 1.8970166 0
-0.3146202 -0.28824785 1.8985732 0
0.2952435 -0.28933856 1.8892387 0
0.34685796 -0.28724778 1.8894346 0
-0.33023378 -0.26686975 1.8976349 0
-0.31552452 -0.27104431 1.8976779 0
0.29528886 -0.27102104 1.8899385 0
0.34703571 -0.26739377 1.8897598 0
-0.34372354 -0.24884763 1.8996605 0
-0.32690752 -0.24538319 1.896675 0
-0.31627047 -0.24868 1.8968376 0
0.29639885 -0.25237656 1.8861358 0
0.34753355 -0.24979734 1.8885043 0
-0.34288067 -0.23827624 1.8984658 0
-0.32685894 -0.22737661 1.8983774 0
-0.31356901 -0.22468984 1.8977134 0
0.29524449 -0.23086059 1.8899958 0
0.30098182 -0.2324537 1.8806049 0
0.3461782 -0.23326501 1.8884345 0
-0.34311831 -0.21037614 1.8992753 0
-0.33206907 -0.21756065 1.8967509 0
-0.31187236 -0.21115765 1.8989573 0
0.29638889 -0.20794196 1.8875151 0
0.34735817 -0.20922643 1.8908437 0
-0.3278617 -0.1902352 1.8973197 0
0.29557735 -0.19028918 1.8881493 0
0.34726802 -0.19143063 1.8898551 0
-0.38125789 -0.16033962 1.8856386 0
-0.3723954 -0.17079374 1.8894947 0
-0.3489823 -0.17323886 1.8884424 0
-0.3313705 -0.16834062 1.89393 0
-0.31445724 -0.17058325 1.8976668 0
0.29547402 -0.17006199 1.8874619 0
0.34651196 -0.16972454 1.8888713 0
-0.38297522 -0.15248771 1.888662 0
-0.37714952 -0.14403957 1.8926455 0
-0.34096512 -0.14361876 1.882432 0
-0.33026344 -0.14937462 1.8889863 0
-0.31264627 -0.14989316 1.8989079 0
0.29546702 -0.14823321 1.8879735 0
0.34746858 -0.14973269 1.8901292 0
-0.36910915 -0.13501014 1.8898441 0
-0.3509874 -0.13401851 1.8884645 0
-0.32936224 -0.13127777 1.8959365 0
-0.3161855 -0.12936841 1.8958673 0
0.29561996 -0.13065039 1.8890034 0
0.3474336 -0.12886357 1.8899212 0
-0.33180109 -0.10856034 1.8966484 0
-0.31444472 -0.11359644 1.8975513 0
0.29547229 -0.10990312 1.8888592 0
0.30031484 -0.10668427 1.8816953 0
0.34639865 -0.10906928 1.8894361 0
-0.34198952 -0.084929153 1.8957138 0
-0.33337447 -0.090602897 1.8963693 0
-0.31335643 -0.095593572 1.8985505 0
0.29555869 -0.091258444 1.8885415 0
0.30101717 -0.081343055 1.8800406 0
0.34712017 -0.088168636 1.8910924 0
-0.3420077 -0.0712457 1.8958507 0
-0.33026913 -0.071746647 1.8971525 0
-0.31730613 -0.064042211 1.8989342 0
0.29647261 -0.072543792 1.8890787 0
0.34781265 -0.066794232 1.8893683 0
-0.34070325 -0.057508051 1.8954577 0
-0.33456147 -0.049509715 1.8964491 0
-0.31569341 -0.050890565 1.8980094 0
0.29555887 -0.051354118 1.8881499 0
0.34820065 -0.052219134 1.8898447 0
-0.34146303 -0.037689209 1.8955891 0
-0.33045766 -0.031867065 1.8958101 0
-0.31205076 -0.032329321 1.8998098 0
0.29580209 -0.030319549 1.8881185 0
0.34828669 -0.030565528 1.8899817 0
-0.34218028 -0.014336348 1.8978769 0
-0.32866579 -0.012828423 1.8973463 0
-0.31495637 -0.0086799404 1.8975617 0
0.2952683 -0.010143641 1.8892584 0
0.34802938 -0.00945336 1.8894871 0
-0.34222421 0.0059303897 1.8997219 0
-0.32971925 0.0113352 1.8975649 0
-0.31513661 0.014280319 1.8976784 0
0.2955184 0.010200379 1.8909599 0
0.34731272 0.011505759 1.8907186 0
-0.34046233 0.029317856 1.8971168 0
-0.32756373 0.028751064 1.8985665 0
-0.31347924 0.033325635 1.897118 0
0.29566854 0.030585917 1.8895558 0
0.34674367 0.029556159 1.8903129 0
-0.34407669 0.058949947 1.8957785 0
-0.32658309 0.052654307 1.8980026 0
-0.31330281 0.053466 1.8985159 0
0.2958059 0.0479693 1.888061 0
0.3467842 0.048174236 1.8891671 0
-0.34308058 0.064434215 1.8995329 0
-0.32783395 0.07347551 1.8976574 0
-0.31527281 0.067816176 1.8968582 0
0.29587686 0.067873105 1.8877658 0
0.34793732 0.069460012 1.8891515 0
-0.34038305 0.083970502 1.8966969 0
-0.33051217 0.095012069 1.8973073 0
-0.31472352 0.096866131 1.8974059 0
0.2956861 0.089112155 1.8903958 0
0.34697226 0.090091407 1.8903941 0
-0.34292254 0.10675936 1.8990126 0
-0.32614142 0.11502023 1.8972826 0
-0.31313297 0.11577033 1.8992784 0
0.29558229 0.11168939 1.8871733 0
0.34753793 0.11085701 1.8903902 0
-0.3704792 0.13477992 1.8915133 0
-0.34997663 0.13400951 1.8879963 0
-0.32926545 0.13496178 1.8954446 0
-0.31311303 0.12862878 1.8970718 0
0.29620421 0.13229509 1.8901522 0
0.34681496 0.13035367 1.8891225 0
-0.38288718 0.15224886 1.8879887 0
-0.37746316 0.14707209 1.8957329 0
-0.3406477 0.14240292 1.8851271 0
-0.32973737 0.15105268 1.8898685 0
0.29560018 0.14954181 1.8887984 0
0.3474898 0.14993335 1.8894771 0
-0.37071824 0.17050143 1.8893563 0
-0.34914553 0.17178251 1.8886344 0
-0.33259755 0.16499273 1.8921263 0
-0.31304467 0.16838133 1.8978338 0
0.29549873 0.16907398 1.8918095 0
0.34723529 0.17052843 1.8890357 0
-0.34298933 0.1914829 1.8974867 0
-0.3290109 0.18947145 1.8964515 0
-0.31457806 0.1833086 1.89849 0
0.29394147 0.19092716 1.8899633 0
0.30043614 0.19213575 1.880197 0
0.34725374 0.18935564 1.8904706 0
-0.34324208 0.21598087 1.8973217 0
-0.32546329 0.2085723 1.8968925 0
-0.31278127 0.21379925 1.8972497 0
0.29602045 0.21103124 1.8878292 0
0.34699428 0.2105329 1.8895628 0
-0.34235191 0.23300019 1.8971728 0
-0.32715204 0.22838369 1.8963817 0
0.29536611 0.22977975 1.8886731 0
0.34805012 0.22991507 1.8899181 0
-0.34252819 0.24904752 1.8969615 0
-0.32833469 0.24996834 1.8961189 0
-0.31326601 0.24781811 1.897059 0
0.2954281 0.25107199 1.8890828 0
0.30145618 0.25888216 1.8808759 0
0.34752765 0.25009623 1.8885721 0
-0.34128743 0.2603687 1.8960878 0
-0.32803369 0.26851961 1.8975439 0
-0.31452292 0.27139473 1.897063 0
0.2948738 0.27278829 1.8901132 0
0.34751096 0.27001423 1.8902127 0
-0.34200948 0.28657109 1.8981235 0
-0.32873172 0.29682139 1.8969696 0
-0.31600502 0.28694087 1.898376 0
0.29569876 0.2902253 1.889007 0
0.34744069 0.29042459 1.88948 0
-0.34187484 0.30205783 1.8978132 0
-0.32743764 0.3105647 1.8971931 0
-0.31438553 0.30852938 1.8983335 0
0.29524821 0.30978703 1.8897445 0
0.30081677 0.31588963 1.88098 0
0.34747383 0.30938971 1.8896539 0
-0.34265813 0.32870364 1.8980885 0
-0.32934526 0.33061782 1.8973138 0
-0.31445417 0.33487552 1.8976765 0
0.29511112 0.32866305 1.8906379 0
0.34808937 0.33015868 1.8890632 0
-0.3429755 0.34050685 1.8974835 0
-0.3295092 0.35231143 1.8966358 0
-0.31420517 0.35039374 1.8976153 0
0.29553059 0.34878218 1.890278 0
0.30062342 0.34197316 1.881603 0
0.34748575 0.34878755 1.8913243 0
-0.34038496 0.36672211 1.8972803 0
-0.32898378 0.36875689 1.8978301 0
-0.31592056 0.36699221 1.8977048 0
0.29545465 0.36903152 1.8896488 0
0.34767529 0.37092686 1.890923 0
-0.34289479 0.38673723 1.8983078 0
-0.33003584 0.3908084 1.8968079 0
-0.31229469 0.38215882 1.8979959 0
0.29551893 0.39049757 1.8887714 0
0.34719801 0.3895545 1.8900155 0
-0.3427667 0.40581307 1.8978806 0
-0.32842359 0.41072068 1.8969284 0
-0.31544209 0.40721497 1.8976024 0
0.29539996 0.409464 1.8886213 0
0.3476961 0.40950906 1.8876092 0
-0.34232196 0.42962605 1.8980064 0
-0.3271777 0.43151036 1.896302 0
-0.31369954 0.4346087 1.8970069 0
0.29529467 0.42984679 1.8899407 0
0.34767622 0.42861208 1.8908386 0
-0.33183438 0.45108077 1.8967236 0
-0.31370538 0.45425108 1.8973346 0
0.2953867 0.45107201 1.889526 0
0.34712321 0.4494189 1.8896724 0
-0.3431887 0.46893844 1.8984138 0
-0.32985225 0.4686034 1.8971753 0
-0.31577769 0.47396713 1.8970705 0
0.29520297 0.4712438 1.8884106 0
0.34770367 0.46947005 1.8884305 0
-0.34432387 0.48213565 1.8994095 0
-0.33237791 0.48931116 1.896456 0
-0.31500441 0.49300349 1.8976201 0
0.29528457 0.49166286 1.8900744 0
0.34767574 0.48926625 1.8912081 0
-0.34213495 0.51429647 1.8982011 0
-0.33008486 0.51022685 1.8968401 0
-0.31497201 0.51376939 1.8970625 0
0.29478979 0.51029527 1.8896983 0
0.30022141 0.50355655 1.88059 0
0.34751287 0.50941795 1.8895085 0
-0.34301654 0.53001702 1.8971826 0
-0.33004114 0.52904344 1.896699 0
-0.31410313 0.53239608 1.897267 0
0.29598728 0.52995676 1.8889935 0
0.34807393 0.52940643 1.8897232 0
-0.34244901 0.54724622 1.8986377 0
-0.33131433 0.54597533 1.8963915 0
-0.31439215 0.55192447 1.8973299 0
0.29485083 0.55085146 1.8887215 0
0.34760714 0.54980969 1.8888099 0
-0.34377098 0.56987661 1.8990122 0
-0.32740119 0.57175153 1.8975481 0
-0.31481025 0.57044691 1.8976271 0
0.29637673 0.57035434 1.888208 0
0.34763888 0.57252407 1.8890196 0
-0.38226077 0.59440911 1.8875771 0
-0.37334499 0.58666486 1.8909053 0
-0.34855208 0.58544171 1.8884958 0
-0.33279175 0.59425759 1.8898847 0
-0.31552854 0.5920729 1.8972371 0
0.027719893 0.59829211 1.8985542 0
0.050707906 0.59696758 1.8991126 0
0.071873486 0.59644806 1.8984153 0
0.094678186 0.59649581 1.8978844 0
0.11773085 0.59595597 1.8961581 0
0.12672004 0.59287447 1.8994142 0
0.15130459 0.59390408 1.8979381 0
0.17037976 0.59493566 1.8957531 0
0.18785346 0.59141636 1.8983912 0
0.21332628 0.59420359 1.8953799 0
0.23040336 0.59292513 1.8941455 0
0.24982695 0.58850765 1.8940816 0
0.26813951 0.58986783 1.8911575 0
0.28992087 0.588561 1.8881755 0
0.30017596 0.58633864 1.8810781 0
0.35108781 0.58938277 1.8888123 0
0.3642621 0.59922469 1.8814824 0
-0.38682288 0.61148727 1.8912442 0
-0.32676736 0.61307698 1.8871 0
-0.31489375 0.61171591 1.8973883 0
-0.10828294 0.60982609 1.8995622 0
-0.090602234 0.61129999 1.8998049 0
-0.06783884 0.61113834 1.8982517 0
-0.051592063 0.61110556 1.8978325 0
-0.029413788 0.61230594 1.8982683 0
-0.011569205 0.61278975 1.8975005 0
0.010126702 0.61076021 1.8964452 0
0.030730631 0.61227584 1.8958442 0
0.048083261 0.61055088 1.8955765 0
0.068163559 0.61163408 1.8945428 0
0.088387303 0.61143452 1.8934553 0
0.10858693 0.61123562 1.8928059 0
0.13077471 0.61066163 1.891507 0
0.15078169 0.61344033 1.891017 0
0.17000026 0.61117822 1.8907845 0
0.19286083 0.6090194 1.8897073 0
0.20982543 0.61006951 1.8876386 0
0.23078397 0.61148632 1.8865721 0
0.24880871 0.61067641 1.8857805 0
0.26957723 0.61150426 1.8827482 0
0.28915927 0.60724914 1.8807285 0
0.35154769 0.60372752 1.8969551 0
0.36440691 0.61216408 1.8880351 0
-0.38252601 0.62404531 1.8850468 0
-0.36986396 0.6335364 1.8899819 0
-0.34925395 0.63399333 1.889694 0
-0.33233243 0.62787014 1.8920783 0
-0.31985182 0.6205985 1.8974971 0
0.029554248 0.6207509 1.8997068 0
0.050599471 0.62230825 1.8990397 0
0.068267643 0.62233865 1.8985112 0
0.089078829 0.62314433 1.8980305 0
0.11032021 0.62372184 1.8977098 0
0.13053861 0.6246649 1.8969201 0
0.14993058 0.62448162 1.8966093 0
0.17317593 0.62709135 1.8969128 0
0.19087985 0.62707043 1.8960738 0
0.21229641 0.62790865 1.8957343 0
0.22953293 0.62822241 1.895484 0
0.24919778 0.62854266 1.8941826 0
0.26934919 0.62870306 1.8908223 0
0.28878483 0.63099384 1.889975 0
0.31044 0.63353133 1.8890048 0
0.33073384 0.63487911 1.8885089 0
0.34417403 0.63374251 1.8893147 0
0.36532176 0.62061393 1.8845351 0
-0.36832321 -0.63129205 1.907028 0
-0.3498961 -0.63553083 1.9092094 0
-0.32933339 -0.63490885 1.9091734 0
-0.31199053 -0.62925833 1.9100847 0
-0.28921559 -0.62805927 1.9147943 0
-0.26898214 -0.62585735 1.9156859 0
-0.24812761 -0.62758267 1.9155127 0
-0.23004875 -0.62901479 1.9153842 0
-0.20995449 -0.6289804 1.9152008 0
-0.19003652 -0.62873805 1.9133905 0
-0.17044324 -0.62899083 1.9132341 0
-0.14959039 -0.62971205 1.9127259 0
-0.1301233 -0.62943399 1.9121393 0
-0.11082213 -0.63098699 1.9124883 0
-0.090448543 -0.63060606 1.9116056 0
-0.070231274 -0.63065702 1.9108636 0
-0.050590608 -0.63103771 1.9103817 0
-0.02974152 -0.63103938 1.9098811 0
-0.0097721834 -0.63102674 1.9090376 0
0.0096485214 -0.63202637 1.9091575 0
0.029543744 -0.63251275 1.9087678 0
0.050048273 -0.63308364 1.9089087 0
0.070301317 -0.63382238 1.9090866 0
0.090713829 -0.63424957 1.9092586 0
0.10983703 -0.63496631 1.9093899 0
0.12969504 -0.63497984 1.9087268 0
0.15044719 -0.63537103 1.9093845 0
0.17010412 -0.63566118 1.9097441 0
0.18995714 -0.63568586 1.9090567 0
0.21016607 -0.63562113 1.9095429 0
0.22917069 -0.63561964 1.9101233 0
0.2497357 -0.635625 1.9100299 0
0.27028844 -0.6355933 1.9097139 0
0.29027003 -0.63534826 1.9092464 0
0.30918548 -0.63503474 1.9086877 0
0.32765868 -0.6312694 1.9078611 0
0.34036022 -0.62408125 1.9047792 0
-0.38177881 -0.60913932 1.9034334 0
-0.37107792 -0.6078077 1.9153163 0
-0.3078866 -0.61167789 1.9031421 0
-0.28987658 -0.61148006 1.9077733 0
-0.26829872 -0.61048353 1.9088049 0
-0.25161707 -0.61160088 1.9079396 0
-0.22990625 -0.61194146 1.9070201 0
-0.21157835 -0.61123687 1.9062742 0
-0.18891154 -0.61069262 1.9056166 0
-0.16935395 -0.61244118 1.9044092 0
-0.14988612 -0.60983568 1.9042929 0
-0.12960432 -0.61086148 1.9037943 0
-0.10717772 -0.6119957 1.9026836 0
-0.090843096 -0.6087988 1.902833 0
-0.068175964 -0.61420214 1.901497 0
-0.049661949 -0.61177015 1.9018127 0
-0.029421916 -0.61824763 1.9004917 0
-0.017983496 -0.61873996 1.900804 0
0.33753759 -0.60806876 1.9136518 0
0.34636754 -0.61239809 1.9056277 0
-0.38045186 -0.59765732 1.9012274 0
-0.36857721 -0.59054875 1.9063494 0
-0.35248154 -0.58665037 1.9086692 0
-0.30771443 -0.58807105 1.9069158 0
-0.29366252 -0.59056866 1.9143744 0
-0.2705262 -0.59345144 1.9166266 0
-0.24978146 -0.59323597 1.9146385 0
-0.22886449 -0.58931363 1.9150496 0
-0.20762387 -0.59087026 1.9132226 0
-0.18972343 -0.5915038 1.9127011 0
-0.1717025 -0.59074366 1.9135939 0
-0.14962518 -0.59059364 1.9132134 0
-0.13097458 -0.58952665 1.9123675 0
-0.10941186 -0.5905596 1.9128394 0
-0.087234437 -0.59030545 1.9101894 0
-0.071088009 -0.58878428 1.91313 0
-0.047946449 -0.59018636 1.9105512 0
-0.029874906 -0.58987612 1.9103967 0
-0.01071451 -0.58954549 1.9100407 0
0.0095899813 -0.58835745 1.9095069 0
0.030517578 -0.58707404 1.9084693 0
0.050629273 -0.58705592 1.9074521 0
0.068370908 -0.58532184 1.9085658 0
0.090315498 -0.58632869 1.9085499 0
0.11064925 -0.58546937 1.9076331 0
0.13111377 -0.58563757 1.9077919 0
0.14918526 -0.58547282 1.911727 0
0.16790831 -0.58513111 1.9113615 0
0.18901159 -0.58508116 1.9092338 0
0.21161819 -0.58540881 1.9090375 0
0.23181812 -0.58520162 1.911983 0
0.25074852 -0.58554357 1.9076648 0
0.26901397 -0.58538014 1.9104066 0
0.29128894 -0.58521879 1.908347 0
0.30484498 -0.5852735 1.9167006 0
0.33802247 -0.582973 1.9160511 0
0.34201774 -0.58659744 1.908452 0
-0.35149038 -0.56879908 1.9120011 0
-0.30686083 -0.56730556 1.9090432 0
0.29872739 -0.57657695 1.9031057 0
0.30247724 -0.5667429 1.9105599 0
0.33969194 -0.56870502 1.9099978 0
0.34459937 -0.57048774 1.901836 0
-0.35070637 -0.55093366 1.9098253 0
-0.30726996 -0.55018067 1.9086212 0
-0.29995006 -0.55506188 1.9184155 0
0.29761851 -0.5556581 1.9035463 0
0.30244052 -0.55110621 1.9099824 0
0.33860451 -0.55003268 1.9131314 0
0.34382254 -0.55173486 1.9050897 0
-0.34955397 -0.53020114 1.9087423 0
-0.30455628 -0.53113973 1.9124063 0
0.29643738 -0.52712345 1.9009787 0
0.30286881 -0.53347284 1.9114932 0
0.33751136 -0.52976692 1.916966 0
0.34335548 -0.53086466 1.9059956 0
-0.3505424 -0.50832188 1.9100966 0
-0.30517629 -0.51269925 1.9110034 0
0.29930085 -0.51440185 1.9062428 0
0.30200768 -0.50778389 1.9106474 0
0.3381989 -0.5141418 1.9119542 0
0.34334242 -0.50801265 1.9044349 0
-0.34996292 -0.4900324 1.9088677 0
-0.30702636 -0.48894221 1.9087642 0
-0.29995137 -0.49229848 1.9193692 0
0.29762214 -0.49219483 1.9040644 0
0.30183908 -0.4889614 1.909183 0
0.33788019 -0.49546722 1.9140096 0
0.34436733 -0.48692772 1.9044318 0
-0.34996253 -0.47057468 1.9091809 0
-0.30517825 -0.47012028 1.9116913 0
0.29706651 -0.46598208 1.9018044 0
0.30287585 -0.46798325 1.9118756 0
0.33727759 -0.47637051 1.9160616 0
0.34260473 -0.46823752 1.9066224 0
-0.35127386 -0.44877106 1.9107187 0
-0.3059656 -0.45046476 1.9101648 0
0.29753542 -0.45715308 1.9047859 0
0.30255264 -0.44959378 1.9116861 0
0.3382957 -0.4537968 1.9130176 0
0.34370118 -0.44613078 1.9033818 0
-0.35068193 -0.42809969 1.9104462 0
-0.30438566 -0.43060556 1.913 0
0.29930389 -0.43655375 1.9017295 0
0.30255419 -0.43062624 1.9098041 0
0.33798981 -0.4314616 1.9129838 0
0.34314618 -0.43268487 1.9048136 0
-0.3509123 -0.40788546 1.910796 0
-0.30724472 -0.41254276 1.9086994 0
0.2976872 -0.40436757 1.9017065 0
0.30452576 -0.41200435 1.9121352 0
0.33899105 -0.41403562 1.912721 0
0.34300169 -0.40604839 1.9067221 0
-0.35017118 -0.38993716 1.9102807 0
-0.30720916 -0.39021465 1.9087484 0
-0.29964608 -0.39931911 1.9197855 0
0.29943228 -0.3964777 1.9026542 0
0.30277771 -0.38876191 1.9091721 0
0.33737695 -0.38931537 1.9163817 0
0.34365761 -0.38816318 1.9064897 0
-0.35005277 -0.36980531 1.9094828 0
-0.33422279 -0.37953615 1.9004323 0
-0.30796629 -0.36983442 1.9081347 0
0.29876417 -0.3682946 1.901948 0
0.30415237 -0.37027484 1.9110085 0
0.33856589 -0.36630359 1.913532 0
0.34416747 -0.36949265 1.9019644 0
-0.35102439 -0.3487421 1.9107811 0
-0.30594012 -0.35079575 1.9114714 0
0.29982656 -0.34064806 1.9052361 0
0.30221251 -0.3454476 1.9085042 0
0.33673906 -0.35551831 1.9143401 0
0.3431173 -0.34996301 1.9044721 0
-0.35062262 -0.33082229 1.9095198 0
-0.30675542 -0.32744622 1.9093226 0
0.29804212 -0.32522273 1.9008456 0
0.30402178 -0.32889748 1.9114259 0
0.33735633 -0.33488193 1.9142733 0
0.34172094 -0.32783172 1.9076345 0
-0.35107464 -0.31047207 1.9105315 0
-0.30709273 -0.30992326 1.9087694 0
-0.29976732 -0.31137121 1.918471 0
0.29885441 -0.31429303 1.904146 0
0.30301213 -0.30938673 1.9103146 0
0.33747816 -0.31128573 1.9149921 0
0.34352946 -0.31101626 1.905394 0
-0.35050207 -0.2924509 1.9099998 0
-0.30579391 -0.29150182 1.9103094 0
0.29743403 -0.28351331 1.9011952 0
0.3024874 -0.29031578 1.9088295 0
0.33858463 -0.29055262 1.9139106 0
0.34451073 -0.29014865 1.9045374 0
-0.35059485 -0.27026063 1.9103295 0
-0.32267141 -0.27471578 1.9001124 0
-0.30523255 -0.27051243 1.9114144 0
0.29823822 -0.26805615 1.9022235 0
0.30439097 -0.27161676 1.9122984 0
0.33940768 -0.26646268 1.9135377 0
0.34227803 -0.27163917 1.9050816 0
-0.35033032 -0.24811003 1.910587 0
-0.30709064 -0.25115621 1.9077089 0
0.2990368 -0.24852099 1.9037812 0
0.30426422 -0.25231224 1.9126247 0
0.3379254 -0.25181532 1.913352 0
0.34436458 -0.25000998 1.9013021 0
-0.3501361 -0.23146015 1.9101859 0
-0.30547872 -0.23234765 1.9105301 0
0.29734048 -0.23094386 1.9020312 0
0.30456379 -0.23346108 1.9114623 0
0.33823007 -0.2271778 1.9115509 0
0.3428584 -0.231759 1.9041264 0
-0.34944671 -0.20900391 1.9093375 0
-0.30682012 -0.21083164 1.908841 0
0.2981897 -0.20982116 1.9012792 0
0.30410671 -0.21320465 1.9127305 0
0.33696902 -0.2071982 1.9141281 0
0.34285796 -0.20913965 1.9046482 0
-0.35044867 -0.18896754 1.9111872 0
-0.30601585 -0.18940341 1.9093784 0
0.30482897 -0.18877356 1.9129757 0
0.33940089 -0.18499355 1.9106865 0
0.34298182 -0.19130965 1.9048102 0
-0.36951622 -0.16632107 1.9063489 0
-0.35291982 -0.17698605 1.907411 0
-0.30515203 -0.16930431 1.9114387 0
0.29847348 -0.16924866 1.9036322 0
0.30454499 -0.16969666 1.9136467 0
0.33763343 -0.17159003 1.9136328 0
0.34328577 -0.17281774 1.9046082 0
-0.38160953 -0.15404539 1.9025102 0
-0.3713181 -0.1477685 1.9086341 0
-0.35739732 -0.14037652 1.9158618 0
-0.30535254 -0.15056987 1.9107213 0
0.29873148 -0.15096012 1.9033736 0
0.30505216 -0.14856502 1.9139806 0
0.33627808 -0.15923694 1.9160652 0
0.34289438 -0.15041605 1.9055096 0
-0.36366102 -0.13643764 1.9064314 0
-0.35091457 -0.12888663 1.9087765 0
-0.30768183 -0.13176923 1.9081067 0
0.29970264 -0.13113825 1.905391 0
0.30420864 -0.13173671 1.9132155 0
0.33901316 -0.13169616 1.9119534 0
0.34425253 -0.13042055 1.903563 0
-0.34965575 -0.10968436 1.9105184 0
-0.30726743 -0.11048127 1.908335 0
0.29853186 -0.11761577 1.9044528 0
0.30089164 -0.10929638 1.9068888 0
0.33742094 -0.11045049 1.9147031 0
0.34268066 -0.10948092 1.906278 0
-0.349996 -0.091416322 1.9111811 0
-0.30704218 -0.086526036 1.9085448 0
-0.29991651 -0.097740293 1.9181483 0
0.29956323 -0.089420654 1.9045187 0
0.30241567 -0.089843035 1.9093163 0
0.33622727 -0.089158438 1.9167489 0
0.3427287 -0.086655289 1.9063344 0
-0.35012606 -0.071207859 1.9114219 0
-0.30630967 -0.069597952 1.9098364 0
0.29978955 -0.071992904 1.9056146 0
0.30677199 -0.061880976 1.9171284 0
0.34329352 -0.067585096 1.9054035 0
-0.3499583 -0.051671635 1.9111683 0
-0.30602375 -0.048870761 1.9098859 0
0.29875308 -0.052702185 1.9043077 0
0.30564183 -0.050166477 1.9149971 0
0.34302282 -0.052778408 1.905957 0
-0.34949848 -0.032179367 1.910434 0
-0.3062793 -0.027544599 1.9094561 0
0.29832402 -0.026639462 1.904911 0
0.30513826 -0.029546494 1.914555 0
0.34291434 -0.030548923 1.9061164 0
-0.34864229 -0.010357307 1.9090179 0
-0.30554867 -0.010939634 1.9111246 0
0.29732952 -0.0094298199 1.9014307 0
0.30400026 -0.010341334 1.911961 0
0.34324667 -0.0088660698 1.9055375 0
-0.34923643 0.0085986285 1.9099479 0
-0.30733395 0.011137095 1.9083402 0
0.29735491 0.0013712505 1.9020962 0
0.30316922 0.0078578554 1.9115714 0
0.3362186 0.015796475 1.9166832 0
0.34299177 0.010159928 1.9058298 0
-0.34970564 0.030947311 1.9106367 0
-0.3071022 0.031476777 1.9084255 0
0.30244043 0.030040443 1.9086456 0
0.33706078 0.031468116 1.9152116 0
0.34229952 0.030570978 1.9068205 0
-0.34933525 0.050105788 1.909886 0
-0.30576506 0.051175322 1.9104786 0
-0.29984808 0.045501597 1.9195454 0
0.29946876 0.051631965 1.9043505 0
0.3031933 0.047896035 1.9111626 0
0.33838344 0.050856739 1.9128832 0
0.34360069 0.049725153 1.9045272 0
-0.34980464 0.070356779 1.9104862 0
-0.30483815 0.070114613 1.9113547 0
0.2975356 0.067893639 1.9018296 0
0.30434215 0.069739893 1.9132872 0
0.33974934 0.067265481 1.9104671 0
0.34420937 0.071667098 1.9033172 0
-0.34960443 0.090914644 1.909978 0
-0.30713961 0.09021952 1.9075789 0
0.2991327 0.087156177 1.9046942 0
0.30248991 0.089705564 1.909856 0
0.33679464 0.090561315 1.9149121 0
0.34204659 0.089036226 1.9065474 0
-0.34935361 0.10942043 1.9094137 0
-0.30713969 0.11093625 1.9077003 0
-0.29992986 0.118248 1.9192951 0
0.29922223 0.11332746 1.9038856 0
0.30376518 0.11018651 1.9104156 0
0.33895463 0.10828999 1.9111714 0
0.34433106 0.10790415 1.9025789 0
-0.36433995 0.13301176 1.9054089 0
-0.35146385 0.12819833 1.9106829 0
-0.30433726 0.12944961 1.9123892 0
0.29803839 0.12367785 1.9024419 0
0.30442926 0.12698956 1.9127219 0
0.33716434 0.1349843 1.913419 0
0.34182787 0.1291142 1.906122 0
-0.36860248 0.15119734 1.91072 0
-0.30653447 0.14859827 1.9087975 0
-0.29998511 0.1535176 1.9169098 0
0.29949617 0.15180805 1.9044063 0
0.30283111 0.14749846 1.9097781 0
0.33916628 0.14736888 1.9099945 0
0.34321889 0.14945418 1.9034679 0
-0.3673639 0.16767906 1.903538 0
-0.3538751 0.17261398 1.9093639 0
-0.30656034 0.17111044 1.908761 0
-0.29935205 0.16744326 1.9192768 0
0.29822713 0.16574012 1.9027318 0
0.304196 0.16875486 1.9126863 0
0.33748794 0.17239931 1.9127387 0
0.34286842 0.16857037 1.9035183 0
-0.35014719 0.19008037 1.9098675 0
-0.30622086 0.19091281 1.9086317 0
0.29669636 0.19703555 1.9042516 0
0.30352592 0.19046372 1.9124316 0
0.33843827 0.18625894 1.9138331 0
0.34107015 0.19117779 1.9066015 0
-0.35027137 0.20914523 1.9103931 0
-0.30577865 0.20914909 1.9100412 0
0.30402127 0.20725593 1.9124272 0
0.33747604 0.2110716 1.9154217 0
0.34309563 0.20704985 1.9054689 0
-0.34932086 0.23030159 1.9092327 0
-0.30641791 0.23018394 1.9089453 0
0.29833037 0.23550567 1.9008154 0
0.30235073 0.23012111 1.9092531 0
0.33816922 0.23084041 1.9137075 0
0.34381258 0.22870246 1.9047849 0
-0.34919176 0.25019947 1.9099512 0
-0.30632353 0.2512902 1.9106094 0
-0.29803479 0.24254835 1.9193435 0
0.29744178 0.25407076 1.9044559 0
0.30135876 0.24983408 1.9114548 0
0.3380022 0.25033399 1.9132105 0
0.34302631 0.24918342 1.9051231 0
-0.34996584 0.2717306 1.9104421 0
-0.30668285 0.26988348 1.9096162 0
0.29766896 0.26778895 1.9032873 0
0.30334148 0.27025732 1.9130347 0
0.33818111 0.27188563 1.9118903 0
0.34327936 0.26786399 1.9040358 0
-0.34943786 0.291352 1.9090099 0
-0.30644622 0.28875652 1.9100075 0
0.29768214 0.29245415 1.9037126 0
0.30374348 0.2908749 1.9130725 0
0.3384324 0.2913481 1.91273 0
0.34303269 0.2888737 1.9033221 0
-0.34954196 0.31106535 1.9095172 0
-0.30592912 0.30997905 1.9108372 0
0.29808927 0.31973007 1.9038581 0
0.30218983 0.30546656 1.9109083 0
0.33838663 0.3169753 1.9138001 0
0.3431384 0.30903837 1.9055564 0
-0.34948811 0.32928398 1.9101855 0
-0.30778265 0.32945293 1.9080124 0
0.29717475 0.32457989 1.9022105 0
0.30310255 0.33113945 1.9118797 0
0.33785009 0.33473596 1.913919 0
0.34368145 0.32921362 1.9049523 0
-0.34930569 0.35024366 1.9096998 0
-0.30625206 0.34716409 1.910056 0
-0.2997241 0.35954863 1.9193664 0
0.29788888 0.3487018 1.9036283 0
0.30314264 0.35168383 1.9111093 0
0.33819276 0.35497138 1.9121833 0
0.34270057 0.34859559 1.9054502 0
-0.34933937 0.36953256 1.9094391 0
-0.30627793 0.3689408 1.909681 0
0.29809985 0.37031284 1.904218 0
0.30357724 0.37173805 1.9127169 0
0.33804244 0.3732481 1.9112515 0
0.34309387 0.36806911 1.9037035 0
-0.3491928 0.39068708 1.90874 0
-0.30650508 0.39246586 1.9088449 0
-0.29911423 0.38325861 1.9199371 0
0.29809678 0.39990389 1.9017596 0
0.3022795 0.38967916 1.9092023 0
0.33824193 0.38371885 1.9145405 0
0.34169784 0.3881802 1.9070247 0
-0.35075951 0.41099244 1.9126344 0
-0.30639896 0.41053188 1.9093205 0
-0.29964685 0.40978247 1.9187193 0
0.2976324 0.40905803 1.9022497 0
0.30327901 0.40885693 1.9100835 0
0.33816808 0.40080249 1.9138887 0
0.34408417 0.41025856 1.9037764 0
-0.34985548 0.4309864 1.910895 0
-0.30601111 0.42989877 1.9100311 0
0.29879856 0.42214391 1.9044161 0
0.30350924 0.43093714 1.9112798 0
0.33830065 0.43013108 1.9115872 0
0.3428162 0.42876297 1.9047377 0
-0.34994626 0.44956613 1.9101408 0
-0.30588779 0.45019075 1.9107695 0
0.29797691 0.44865149 1.9032606 0
0.30254355 0.44979736 1.9121956 0
0.33727503 0.448109 1.9164722 0
0.34272474 0.4513633 1.9061449 0
-0.34917316 0.47082496 1.9094927 0
-0.30668932 0.47147337 1.9086672 0
0.29726011 0.46756563 1.903434 0
0.30337611 0.47058669 1.9136503 0
0.33826628 0.46952444 1.913352 0
0.34395233 0.47326156 1.9039609 0
-0.34980288 0.49004963 1.9110011 0
-0.30578327 0.48908737 1.9103043 0
0.29767671 0.49022344 1.9032714 0
0.30399811 0.49501228 1.9128464 0
0.33769828 0.49390489 1.9115531 0
0.34205773 0.48628339 1.905406 0
-0.34900561 0.51086468 1.9098631 0
-0.30615786 0.50901043 1.9091411 0
0.29787844 0.51103491 1.9033011 0
0.30444902 0.5109719 1.9135165 0
0.33860207 0.50375438 1.9143829 0
0.34377074 0.50996172 1.9038696 0
-0.34962982 0.53065366 1.9105546 0
-0.30553642 0.52847737 1.9105095 0
0.29754335 0.5278157 1.9011322 0
0.30292648 0.5309546 1.9095373 0
0.33852994 0.52812475 1.9118686 0
0.34287196 0.5313468 1.9051975 0
-0.35040346 0.54962599 1.9120206 0
-0.30682081 0.54963535 1.9090797 0
0.29777947 0.54705393 1.9022435 0
0.3029238 0.55098259 1.9118248 0
0.33736506 0.55156922 1.912729 0
0.34247601 0.55052847 1.9036123 0
-0.34956133 0.57002825 1.9099206 0
-0.32234418 0.56282705 1.9005548 0
-0.30737525 0.56809437 1.9082875 0
0.29670572 0.56923115 1.9035802 0
0.30321288 0.57772052 1.9134365 0
0.33780777 0.56897283 1.9140686 0
0.34278697 0.57037002 1.9052784 0
-0.368368 0.59089035 1.909114 0
-0.35243356 0.58364362 1.9102148 0
-0.30774873 0.58695501 1.9072416 0
-0.29003778 0.59160459 1.9137166 0
-0.26687014 0.59210372 1.9158889 0
-0.25153011 0.5960356 1.9143614 0
-0.22892842 0.58931339 1.9158624 0
-0.20959179 0.59472382 1.9110558 0
-0.18766698 0.59245276 1.9124842 0
-0.17146865 0.59248108 1.9126701 0
-0.14777741 0.5927912 1.9113716 0
-0.12928711 0.59092158 1.9112256 0
-0.10903323 0.58969784 1.9120247 0
-0.09335541 0.58813906 1.9135163 0
-0.066918261 0.59259295 1.909924 0
-0.048152324 0.58808845 1.9115269 0
-0.030558601 0.58797282 1.9109129 0
-0.0079117073 0.58720362 1.9103416 0
0.010425785 0.58908516 1.9093975 0
0.030582406 0.58675432 1.9106963 0
0.050416097 0.58552158 1.9106342 0
0.07128337 0.58648217 1.9085163 0
0.090164229 0.5861336 1.9090123 0
0.10963283 0.58553219 1.9089276 0
0.13122489 0.58492839 1.9102658 0
0.15138853 0.58416104 1.9108124 0
0.16830859 0.58465075 1.9089161 0
0.19033706 0.58459598 1.9094298 0
0.20939475 0.58405161 1.9095529 0
0.23015083 0.58407122 1.9107466 0
0.24999191 0.58430994 1.9097015 0
0.26909781 0.58413708 1.9080544 0
0.2890586 0.58425444 1.909688 0
0.30259544 0.58380067 1.9135551 0
0.33806464 0.59337699 1.9122518 0
0.34277499 0.59236568 1.9037704 0
-0.38342011 0.60857117 1.9039723 0
-0.37699044 0.61091787 1.9098257 0
-0.30768895 0.61424953 1.9029742 0
-0.29092073 0.61406577 1.9060386 0
-0.27081162 0.61363912 1.9087253 0
-0.25022566 0.61395198 1.907485 0
-0.22981891 0.6149379 1.9069957 0
-0.2096968 0.6128704 1.9058659 0
-0.19036663 0.61387509 1.905218 0
-0.1697894 0.61296254 1.9051325 0
-0.1507598 0.61397034 1.9037014 0
-0.13008969 0.613913 1.9031115 0
-0.11058988 0.61522901 1.9029312 0
-0.090756334 0.61369491 1.9024191 0
-0.068941772 0.61413831 1.9021907 0
-0.050113559 0.61615312 1.9011123 0
-0.033197172 0.61205232 1.900331 0
-0.01222638 0.61965537 1.9002969 0
0.011175932 0.61016196 1.9001088 0
0.33763635 0.60637152 1.9164671 0
0.34380203 0.61157596 1.9075451 0
-0.3660354 0.62988216 1.9076 0
-0.3489958 0.63491207 1.9096149 0
-0.32904318 0.63401842 1.9092127 0
-0.31097496 0.62935346 1.9108766 0
-0.2905097 0.62850326 1.914462 0
-0.27046341 0.62694091 1.9157811 0
-0.25014257 0.62769723 1.9154704 0
-0.22978592 0.62824798 1.9146909 0
-0.20984463 0.62819684 1.9138385 0
-0.18994747 0.6289677 1.9136987 0
-0.17008799 0.62922978 1.9131807 0
-0.15022267 0.62926191 1.9125187 0
-0.13009529 0.6300922 1.9123803 0
-0.10895436 0.630189 1.9120955 0
-0.089704707 0.6294862 1.9111588 0
-0.069501914 0.63021624 1.9109524 0
-0.049461905 0.63030392 1.9103224 0
-0.029419396 0.62997741 1.9093177 0
-0.010946165 0.63041979 1.9091648 0
0.0093766879 0.63120192 1.909333 0
0.02865384 0.63192225 1.9094255 0
0.048461474 0.63236845 1.9095541 0
0.069272786 0.63271701 1.9088283 0
0.090246044 0.63334215 1.9088925 0
0.11042406 0.63386494 1.9088498 0
0.13051999 0.63411224 1.9087924 0
0.15088136 0.63414264 1.908968 0
0.17075148 0.63459051 1.9103802 0
0.19029874 0.63466507 1.9110969 0
0.2095146 0.63458145 1.9104087 0
0.23015408 0.63465637 1.9091309 0
0.25023293 0.63462049 1.9102521 0
0.26925221 0.63484508 1.9088342 0
0.2906054 0.6345287 1.9100842 0
0.30891234 0.6342513 1.9088749 0
0.32599831 0.63485897 1.9049269 0
0.34172237 0.62466925 1.9026122 0
-0.34785059 -0.63162166 1.9266597 0
-0.33136964 -0.63558477 1.9282889 0
-0.30926427 -0.63538092 1.9310814 0
-0.2901229 -0.63550043 1.9296536 0
-0.2699568 -0.63522124 1.9296175 0
-0.24966545 -0.63556689 1.928705 0
-0.22946379 -0.63544738 1.9302303 0
-0.21089633 -0.63555294 1.9299986 0
-0.18960819 -0.63562113 1.9295273 0
-0.16962218 -0.63559198 1.9300346 0
-0.14957972 -0.63555801 1.9296298 0
-0.12945838 -0.63559175 1.9291531 0
-0.10955276 -0.63561392 1.9301975 0
-0.087984905 -0.63564408 1.9309486 0
-0.06966538 -0.63563979 1.9299496 0
-0.050037902 -0.63561326 1.9298257 0
-0.03030506 -0.63562012 1.9299543 0
-0.010063469 -0.63560933 1.9294368 0
0.01007761 -0.63548946 1.9290471 0
0.030399799 -0.63531339 1.9297177 0
0.04918861 -0.63528484 1.9283159 0
0.070073858 -0.63504595 1.9293253 0
0.090868302 -0.63487071 1.9283136 0
0.11052173 -0.63455433 1.9284495 0
0.13139491 -0.63483471 1.9278127 0
0.15002918 -0.6334843 1.9281902 0
0.17057182 -0.63338464 1.9277525 0
0.189624 -0.63210678 1.928256 0
0.20886342 -0.63227618 1.927179 0
0.2299334 -0.63243616 1.9269134 0
0.25028384 -0.63205916 1.9269539 0
0.26962182 -0.62953919 1.9264886 0
0.28815562 -0.62520856 1.925777 0
0.30839652 -0.62312937 1.92293 0
-0.36699733 -0.60941523 1.9237804 0
-0.35512108 -0.60664505 1.9314249 0
0.19887733 -0.60481912 1.9393011 0
0.21895605 -0.60447609 1.9392653 0
0.23091635 -0.61124367 1.9383767 0
0.2406981 -0.61977232 1.9374204 0
0.29248452 -0.60308951 1.9288747 0
0.3083359 -0.60739118 1.9306122 0
0.33283675 -0.60743421 1.9212828 0
-0.35075933 -0.58713925 1.9312121 0
-0.30007559 -0.58545876 1.9328587 0
-0.28762335 -0.58534682 1.9300427 0
-0.26908669 -0.5852437 1.9286985 0
-0.24853796 -0.58519691 1.9309945 0
-0.23100008 -0.58511573 1.9294109 0
-0.21251802 -0.58528465 1.9284099 0
-0.191558 -0.58534259 1.9307413 0
-0.16977106 -0.58548707 1.93147 0
-0.15136941 -0.58539522 1.9285285 0
-0.13053198 -0.58535326 1.9296862 0
-0.10880858 -0.58532745 1.9306955 0
-0.090069294 -0.58536428 1.9280479 0
-0.069521628 -0.58529234 1.9304291 0
-0.050313193 -0.58516198 1.9299082 0
-0.030870974 -0.58534265 1.9299805 0
-0.010631849 -0.5851931 1.9293784 0
0.0089480262 -0.58532733 1.9306319 0
0.029567676 -0.58593291 1.9292308 0
0.049417987 -0.58667529 1.9288638 0
0.069079071 -0.58547127 1.9260391 0
0.089936391 -0.58517218 1.926113 0
0.11073887 -0.5853985 1.926429 0
0.12814507 -0.58931786 1.9300756 0
0.14931403 -0.58970273 1.9321022 0
0.17069465 -0.58936816 1.9305208 0
0.19209784 -0.5867219 1.9271618 0
0.21092717 -0.58528864 1.9258876 0
0.23146987 -0.58815712 1.9257364 0
0.24948081 -0.59096485 1.9282573 0
0.26743761 -0.59154356 1.9286717 0
0.28896046 -0.590913 1.9220668 0
0.32310891 -0.59716195 1.9218218 0
-0.35316211 -0.57054603 1.9286522 0
-0.30058432 -0.57136154 1.9248596 0
-0.29990581 -0.56893444 1.9208374 0
-0.3536056 -0.55014056 1.9291295 0
-0.30041635 -0.5502798 1.9239624 0
-0.29792136 -0.54051548 1.924174 0
-0.35238963 -0.52922136 1.9302208 0
-0.30009031 -0.52330434 1.9258474 0
-0.29829094 -0.52783233 1.9230548 0
-0.35271829 -0.51291573 1.9277959 0
-0.30104756 -0.50598931 1.9226053 0
-0.29878122 -0.51047856 1.9215094 0
-0.35208359 -0.48967695 1.9302648 0
-0.30302128 -0.48515469 1.9291114 0
-0.29951185 -0.49605536 1.9204509 0
-0.35320458 -0.47054282 1.9295222 0
-0.30201676 -0.4654524 1.9282991 0
-0.35416803 -0.45224583 1.9284859 0
-0.30109149 -0.4535892 1.9241445 0
-0.29889923 -0.44444588 1.9241191 0
-0.35337904 -0.43368655 1.9287926 0
-0.30633318 -0.4271346 1.9373282 0
-0.29884869 -0.42605144 1.9224925 0
-0.35066333 -0.4101316 1.9317735 0
-0.30201504 -0.41058761 1.9267663 0
-0.35211188 -0.38989058 1.9304541 0
-0.30154714 -0.38965815 1.9270986 0
-0.29956555 -0.39801514 1.9229238 0
-0.35344812 -0.37081033 1.9283739 0
-0.3012991 -0.37258184 1.921236 0
-0.29902965 -0.37198028 1.9238609 0
-0.35357976 -0.3500092 1.9290079 0
-0.30022809 -0.35070652 1.9243878 0
-0.29863414 -0.35899818 1.9225743 0
-0.35265616 -0.32742268 1.9309866 0
-0.30063063 -0.32778203 1.9213605 0
-0.29919747 -0.3308059 1.9229075 0
-0.35217497 -0.30945867 1.9305941 0
-0.30413121 -0.30935171 1.9314156 0
-0.35198507 -0.29162517 1.9298037 0
-0.30297321 -0.29161742 1.9304016 0
-0.29911876 -0.28392804 1.926146 0
-0.35110426 -0.2724157 1.9305791 0
-0.30099866 -0.27125531 1.9280484 0
-0.29980731 -0.2625246 1.9206278 0
-0.35260123 -0.24936251 1.9289303 0
-0.30012441 -0.25758794 1.9218439 0
-0.29898423 -0.25038159 1.9241464 0
-0.3517507 -0.22891878 1.929961 0
-0.30861688 -0.22354233 1.9396312 0
-0.29789436 -0.23482811 1.9214518 0
-0.35333681 -0.2109447 1.9284488 0
-0.3053866 -0.20805049 1.9348382 0
-0.29945844 -0.21470782 1.9206843 0
-0.35171866 -0.19041662 1.9313467 0
-0.30126935 -0.19522165 1.9244087 0
-0.35250336 -0.17104134 1.9293913 0
-0.30115804 -0.17479575 1.9272406 0
-0.2992737 -0.16008723 1.9238664 0
-0.36117154 -0.15407255 1.9223146 0
-0.35449177 -0.14982896 1.9280249 0
-0.29767579 -0.15123558 1.9213742 0
-0.35291362 -0.12935884 1.9300562 0
-0.30763221 -0.128039 1.9385145 0
-0.29946694 -0.13262558 1.9207777 0
-0.3522017 -0.11065521 1.9313167 0
-0.30312821 -0.10946403 1.9283906 0
-0.29966784 -0.1160356 1.9222308 0
-0.35176221 -0.092085078 1.9320748 0
-0.30194521 -0.08978416 1.9271549 0
-0.35162348 -0.071225159 1.9323483 0
-0.30040383 -0.077493072 1.9261889 0
-0.29947263 -0.064799547 1.9239886 0
-0.35183612 -0.051031668 1.9320284 0
-0.300125 -0.0457654 1.9227628 0
-0.35231757 -0.031133264 1.9311612 0
-0.29902065 -0.033087373 1.9203886 0
-0.35334554 -0.0086800428 1.9294776 0
-0.3006618 -0.010922365 1.923951 0
-0.35431185 0.010085613 1.9275604 0
-0.30228454 0.0077195577 1.9270304 0
-0.29973018 0.016443208 1.9222308 0
-0.35169244 0.02939341 1.9310839 0
-0.3054778 0.02850616 1.9344975 0
-0.29939032 0.030679351 1.9209832 0
-0.35247189 0.050639752 1.9303199 0
-0.30254927 0.053654432 1.9290702 0
-0.35318008 0.070284761 1.9284277 0
-0.30009025 0.072193623 1.9247582 0
-0.35158783 0.089138128 1.9304435 0
-0.30046201 0.098578006 1.9228992 0
-0.29748887 0.080868244 1.9212376 0
-0.35295177 0.11079168 1.9283905 0
-0.299447 0.1094894 1.9207289 0
-0.35118145 0.13150313 1.930876 0
-0.30597252 0.13435692 1.9376509 0
-0.35160956 0.15240519 1.9312948 0
-0.302037 0.15368737 1.927922 0
-0.35350102 0.17153382 1.9287987 0
-0.3013531 0.17273626 1.9292718 0
-0.2991302 0.17880583 1.9263425 0
-0.35383838 0.19052459 1.9296319 0
-0.29894873 0.19148563 1.9240373 0
-0.35251051 0.2087829 1.9310604 0
-0.30093789 0.20404693 1.9206274 0
-0.35255915 0.22979182 1.9294205 0
