# .PCD v0.7 - Point Cloud Data file format
VERSION 0.7
FIELDS x y z rgb
SIZE 4 4 4 4
TYPE F F F F
COUNT 1 1 1 1
WIDTH 1259
HEIGHT 1
VIEWPOINT 0 0 0 1 0 0 0
POINTS 1259
DATA ascii
0.043645822 -0.034096606 0.074224211 0
0.08937066 -0.03701859 0.079635724 0
0.090780348 -0.03237145 0.074204117 0
-0.093465701 -0.023518965 0.074204125 0
-0.051051416 -0.021947619 0.075529858 0
-0.049943466 -0.024020448 0.070307277 0
0.0475161 -0.028561654 0.074146114 0
0.051402088 -0.021291491 0.074302301 0
-0.094875388 -0.01887184 0.079635724 0
-0.05418168 -0.012128529 0.074224211 0
0.053371683 -0.014798606 0.074224204 0
0.095113382 -0.016455472 0.076919928 0
-0.096258104 -0.0048328415 0.074204132 0
-0.055376254 -0.002650416 0.074146122 0
0.054829217 -0.0082038688 0.074146114 0
-0.096734099 0 0.079635724 0
-0.055233289 0.0041019344 0.074224211 0
0.055506714 0.001325208 0.074224211 0
0.096496098 0.0024164128 0.076919928 0
-0.095113382 0.016455472 0.076919928 0
-0.05337172 0.014798582 0.074224211 0
0.05418162 0.012128523 0.074224211 0
0.094875328 0.01887178 0.079635724 0
-0.051402088 0.021291429 0.074302301 0
-0.0475161 0.028561637 0.074146114 0
0.049943406 0.024020389 0.070307277 0
0.051051348 0.021947559 0.075529858 0
0.093465656 0.02351892 0.074204125 0
-0.09078031 0.032371406 0.074204125 0
-0.089370601 0.03701853 0.079635724 0
-0.043645822 0.034096606 0.074224204 0
-0.039341439 0.039341498 0.074302301 0
0.039341439 0.039341439 0.074302301 0
0.045415875 0.03193973 0.074224211 0
0.08937066 0.03701847 0.079635724 0
-0.083047859 0.048847575 0.07051678 0
-0.031939678 0.045415934 0.074224211 0
-0.02402037 0.049943421 0.070307285 0
0.028561592 0.0475161 0.074146114 0
0.034096546 0.043645822 0.074224204 0
0.087081447 0.041301288 0.074204125 0
-0.081085399 0.052519105 0.079054311 0
-0.021947555 0.051051356 0.075529858 0
-0.01212847 0.05418162 0.074224211 0
-0.0026504011 0.055376194 0.074146122 0
0.0041019116 0.055233229 0.074224211 0
0.014798544 0.053371683 0.074224204 0
0.021291429 0.051402088 0.074302301 0
0.077350691 0.057496443 0.074204125 0
0.080431461 0.053742521 0.079635724 0
-0.071482033 0.064647421 0.074204132 0
-0.06840127 0.068401329 0.079635724 0
0.068401329 0.06840127 0.079635724 0
-0.057496399 0.077350736 0.074204117 0
0.064647406 0.071482033 0.074204125 0
-0.053742461 0.080431521 0.079635724 0
-0.041301228 0.087081462 0.074204125 0
-0.037018411 0.08937066 0.079635724 0
0.03701853 0.089370601 0.079635724 0
0.048847534 0.083047859 0.07051678 0
0.052519053 0.081085399 0.079054311 0
-0.02351886 0.093465656 0.074204125 0
-0.018871721 0.094875328 0.079635724 0
-0.0048328103 0.096258044 0.074204132 0
0 0.096734039 0.079635724 0
0.016455419 0.095113322 0.076919928 0
0.032371391 0.090780288 0.074204117 0
-0.034141932 -0.09024334 0.084031478 0
-0.017376089 -0.095022716 0.086833596 0
0.0014958049 -0.096586838 0.086833611 0
0.01887184 -0.094875447 0.08963573 0
0.021748489 -0.094002828 0.084031478 0
-0.05241707 -0.081139997 0.086833604 0
-0.03701859 -0.08937072 0.08963573 0
0.037698112 -0.089007452 0.088996753 0
0.040281847 -0.087626413 0.080344141 0
0.05374258 -0.080431521 0.08963573 0
-0.065541029 -0.070748769 0.080344141 0
0.056066319 -0.07852447 0.084031478 0
-0.067805693 -0.068890214 0.088996761 0
0.068890214 -0.067805693 0.088996761 0
0.070748769 -0.065541029 0.080344141 0
-0.080431521 -0.05374258 0.08963573 0
-0.07852447 -0.056066319 0.084031478 0
-0.020935489 -0.051510148 0.085509032 0
-0.013702317 -0.053704299 0.082949802 0
-0.0093145566 -0.054719884 0.084083639 0
0.00076986721 -0.055561475 0.084192976 0
0.011594526 -0.054343674 0.084192976 0
0.021973681 -0.051037535 0.084192969 0
0.081139989 -0.052417073 0.086833604 0
-0.087626368 -0.040281847 0.080344141 0
-0.034527969 -0.043291871 0.084192976 0
-0.029545929 -0.046990052 0.084083639 0
0.031508368 -0.045769949 0.084192976 0
-0.089007393 -0.037698112 0.088996761 0
-0.045769949 -0.031508431 0.084192969 0
-0.039341498 -0.039341498 0.084302306 0
0.039341439 -0.039341498 0.084302306 0
0.043291811 -0.034527969 0.084192969 0
0.08937066 -0.03701859 0.08963573 0
0.09024328 -0.034141932 0.084031478 0
-0.094002768 -0.021748489 0.084031478 0
-0.051037483 -0.021973683 0.084192976 0
0.046989992 -0.029545929 0.084083639 0
0.051510081 -0.020935489 0.085509032 0
-0.094875388 -0.01887184 0.08963573 0
-0.054343667 -0.011594526 0.084192969 0
0.053704239 -0.013702317 0.082949802 0
0.095022716 -0.017376089 0.086833604 0
-0.096439451 -0.0029916097 0.084031485 0
-0.055485647 -0.0015397344 0.084083647 0
0.054719824 -0.0093145566 0.084083639 0
-0.096734099 0 0.08963573 0
-0.05517859 0.0046572783 0.084192969 0
0.055561416 0.00076986721 0.084192976 0
0.096586771 0.0014958002 0.086833604 0
-0.095022716 0.017376089 0.086833604 0
-0.053704284 0.013702299 0.082949802 0
0.054343607 0.011594522 0.084192969 0
0.094875328 0.01887178 0.08963573 0
-0.051510081 0.020935429 0.085509032 0
-0.046989992 0.029545922 0.084083639 0
0.05103742 0.021973623 0.084192976 0
0.094002709 0.021748438 0.084031478 0
-0.090243235 0.034141883 0.084031478 0
-0.089370601 0.03701853 0.08963573 0
-0.043291811 0.034527969 0.084192976 0
-0.039341439 0.039341498 0.084302306 0
0.039341439 0.039341439 0.084302306 0
0.045769885 0.031508371 0.084192969 0
0.089007393 0.037698109 0.088996761 0
-0.031508312 0.045769945 0.084192969 0
0.02954587 0.046989992 0.084083639 0
0.034527909 0.043291807 0.084192969 0
0.087626353 0.040281836 0.080344141 0
-0.081139937 0.052417066 0.086833604 0
-0.021973619 0.051037423 0.084192976 0
-0.011594467 0.054343607 0.084192969 0
-0.0015397258 0.055485588 0.084083647 0
0.0046572527 0.055178531 0.084192976 0
0.013702257 0.053704239 0.08294981 0
0.020935427 0.051510081 0.085509025 0
0.078524411 0.05606626 0.084031478 0
0.080431461 0.053742521 0.08963573 0
-0.070748709 0.065540977 0.080344141 0
-0.068890154 0.067805633 0.088996768 0
0.067805633 0.068890154 0.088996761 0
-0.056066215 0.078524463 0.084031478 0
0.065540969 0.070748709 0.080344141 0
-0.053742461 0.080431521 0.08963573 0
-0.040281776 0.087626368 0.080344141 0
-0.037698049 0.089007393 0.088996761 0
0.03701853 0.089370601 0.08963573 0
0.052417014 0.08113993 0.086833604 0
-0.021748379 0.094002709 0.084031478 0
-0.018871721 0.094875328 0.08963573 0
-0.0029915902 0.096439391 0.084031492 0
0 0.096734039 0.08963573 0
0.017376035 0.095022649 0.086833611 0
0.034141872 0.09024322 0.084031478 0
-0.027945245 -0.092123054 0.099998854 0
-0.018648785 -0.094780065 0.099185951 0
-0.0094359498 -0.095804773 0.099998854 0
0.0012264241 -0.096509121 0.099276274 0
0.018934783 -0.094726272 0.099786922 0
0.025510876 -0.092861518 0.096723072 0
-0.053606719 -0.080504119 0.099131763 0
-0.045380615 -0.084901094 0.099998854 0
-0.036426924 -0.088407427 0.099276274 0
-0.02889074 -0.081838295 0.099998854 0
-0.014747647 -0.085998982 0.099998854 0
0.0023132982 -0.087223694 0.099998854 0
0.017125499 -0.086095937 0.099998854 0
0.021445096 -0.084096901 0.099998854 0
0.036755692 -0.088271201 0.099276274 0
0.045380525 -0.084901124 0.099998854 0
0.05376808 -0.0804106 0.099771775 0
-0.061072014 -0.074416399 0.099998854 0
-0.051899873 -0.079298995 0.099998854 0
-0.046535466 -0.073809013 0.099998854 0
-0.030167378 -0.072830446 0.099998854 0
-0.024159051 -0.073658377 0.099998854 0
-0.015174627 -0.076288052 0.099998854 0
-0.0047577987 -0.075397164 0.099998854 0
0.0044008372 -0.07768032 0.099998854 0
0.015174611 -0.076288082 0.099998854 0
0.025633089 -0.073211215 0.099998854 0
0.035015441 -0.076475009 0.099998854 0
0.048769385 -0.072988607 0.099998854 0
0.053580001 -0.076036707 0.096723072 0
0.061071955 -0.074416459 0.099998854 0
-0.074416459 -0.061071955 0.099998854 0
-0.067486122 -0.067737788 0.099276274 0
-0.058009729 -0.064552695 0.099998854 0
-0.045922972 -0.062876761 0.099998854 0
-0.035781704 -0.069393665 0.099998854 0
-0.026445923 -0.063624978 0.099998847 0
-0.013780366 -0.06754116 0.099998854 0
-0.0044760904 -0.06839028 0.099998854 0
0.001032944 -0.068729408 0.099998854 0
0.013602541 -0.067576535 0.099998854 0
0.026289532 -0.063689791 0.099998854 0
0.037819453 -0.068304472 0.099998854 0
0.04321368 -0.064673916 0.099998854 0
0.05120676 -0.064551264 0.099998854 0
0.067737788 -0.067486122 0.099276267 0
0.074416399 -0.061072014 0.099998854 0
-0.0804106 -0.053768083 0.099771783 0
-0.076036684 -0.053580001 0.096723072 0
-0.064551227 -0.05120676 0.099998854 0
-0.056182366 -0.053416334 0.099998854 0
-0.042393439 -0.054628044 0.099998854 0
-0.038003568 -0.057357676 0.099998847 0
-0.021235669 -0.051407531 0.096935421 0
-0.011834255 -0.053782213 0.097464688 0
-0.0053831092 -0.053686235 0.097162031 0
0.0024793737 -0.054633413 0.096989818 0
0.011949341 -0.053863999 0.09698981 0
0.021334708 -0.051366538 0.096935421 0
0.038014561 -0.057503015 0.099998854 0
0.045307811 -0.052236281 0.099998854 0
0.053416338 -0.056182407 0.099998854 0
0.064552665 -0.058009729 0.099998854 0
0.079298995 -0.051899873 0.099998854 0
0.080504119 -0.053606719 0.099131763 0
-0.084901094 -0.045380525 0.099998854 0
-0.072988607 -0.048769385 0.099998854 0
-0.064673916 -0.04321368 0.099998854 0
-0.052236259 -0.045307811 0.099998854 0
-0.048670944 -0.048670944 0.099998847 0
-0.030825244 -0.046272516 0.09698981 0
-0.02283207 -0.045756124 0.097860001 0
-0.012856147 -0.04526604 0.097860001 0
-0.0025817396 -0.045709122 0.097860001 0
0.0063336133 -0.045801055 0.097860001 0
0.016301509 -0.045147605 0.097860001 0
0.02626941 -0.04449416 0.097860001 0
0.030945856 -0.046217289 0.096935421 0
0.048670944 -0.048671003 0.099998847 0
0.054628007 -0.042393468 0.099998854 0
0.062876731 -0.04592298 0.099998854 0
0.073808998 -0.046535462 0.099998854 0
0.084901065 -0.045380615 0.099998854 0
-0.088271126 -0.036755696 0.099276282 0
-0.076474987 -0.035015445 0.099998854 0
-0.068304442 -0.037819453 0.099998854 0
-0.057503015 -0.038014568 0.099998854 0
-0.046071522 -0.030943828 0.09698981 0
-0.03813567 -0.038091075 0.097155564 0
-0.025465338 -0.036106136 0.097860001 0
-0.01548139 -0.035779413 0.097860001 0
-0.0054974426 -0.03545269 0.097860001 0
0.0044865054 -0.035125967 0.097860001 0
0.014470453 -0.034799241 0.097860001 0
0.0244544 -0.034472518 0.097860001 0
0.037996616 -0.03789112 0.097187586 0
0.045802314 -0.030895459 0.09703815 0
0.057357617 -0.038003564 0.099998847 0
0.069393665 -0.035781704 0.099998854 0
0.072830439 -0.030167386 0.099998854 0
0.08840736 -0.036426928 0.099276274 0
-0.092861459 -0.025510877 0.096723072 0
-0.084096871 -0.021445094 0.099998854 0
-0.073211178 -0.025633086 0.099998854 0
-0.063689791 -0.026289534 0.099998847 0
-0.051366482 -0.02133471 0.096935421 0
-0.044100162 -0.020887528 0.097860001 0
-0.03543631 -0.024171047 0.097860001 0
-0.026142437 -0.025166459 0.097860001 0
-0.016166516 -0.024676377 0.097860001 0
-0.0061905934 -0.024186295 0.097860001 0
0.003785328 -0.023696212 0.097860001 0
0.013761249 -0.023206128 0.097860001 0
0.023737174 -0.022716047 0.097860001 0
0.033713095 -0.022225965 0.097860001 0
0.04368902 -0.021735882 0.097860001 0
0.051407468 -0.021235669 0.096935421 0
0.063624978 -0.026445927 0.099998854 0
0.07365834 -0.024159066 0.099998854 0
0.081838265 -0.02889077 0.099998854 0
0.092123024 -0.027945245 0.099998854 0
-0.094726205 -0.018934783 0.099786922 0
-0.086095907 -0.017125502 0.099998854 0
-0.076288052 -0.015174609 0.099998854 0
-0.067576528 -0.013602542 0.099998854 0
-0.054490186 -0.010955523 0.096935421 0
-0.045000024 -0.010854244 0.097860001 0
-0.034124237 -0.015178852 0.097860001 0
-0.024148315 -0.014688769 0.097860001 0
-0.014172393 -0.01419869 0.097860001 0
-0.0041964706 -0.013708608 0.097860001 0
0.0057794508 -0.013218527 0.097860001 0
0.015755374 -0.012728445 0.097860001 0
0.025731295 -0.012238365 0.097860001 0
0.035707217 -0.011748283 0.097860001 0
0.045683142 -0.011258202 0.097860001 0
0.054549374 -0.010916287 0.097351752 0
0.067541152 -0.013780418 0.099998847 0
0.076288052 -0.015174668 0.099998854 0
0.085998982 -0.014747653 0.099998854 0
0.094780065 -0.018648783 0.099185951 0
-0.096058995 -0.0036792688 0.09795218 0
-0.086664706 -0.0046265926 0.099998854 0
-0.077577963 -0.0088016782 0.099998854 0
-0.068169825 -0.0067141349 0.099998854 0
-0.055348903 -0.0029280863 0.095940582 0
-0.044248804 -0.0098378696 0.097860001 0
-0.034296956 -0.0088577028 0.097860001 0
-0.024345111 -0.0078775361 0.097860001 0
-0.014393264 -0.0068973699 0.097860001 0
-0.0044414178 -0.0059172031 0.097860001 0
0.0055104271 -0.0049370364 0.097860001 0
0.015462274 -0.0039568697 0.097860001 0
0.02541412 -0.002976703 0.097860001 0
0.035365965 -0.0019965363 0.097860001 0
0.045317814 -0.00101637 0.097860001 0
0.055079486 -0.004184579 0.096324466 0
0.068169825 -0.0067141652 0.099998854 0
0.075397134 -0.0047578108 0.099998854 0
0.095804743 -0.0094359498 0.099998854 0
-0.09660133 0.0013479929 0.099946968 0
-0.087782592 0 0.099998854 0
-0.076351315 0.0028546865 0.099998854 0
-0.06873662 0.00095916219 0.099998847 0
-0.055398282 0.0012307587 0.09698981 0
-0.045158952 0.00050818501 0.097860001 0
-0.035183027 0.00099826814 0.097860001 0
-0.025207102 0.0014883515 0.097860001 0
-0.01523118 0.0019784349 0.097860001 0
-0.0052552577 0.0024685182 0.097860001 0
0.0047206637 0.0029586016 0.097860001 0
0.014696586 0.0034486849 0.097860001 0
0.024672508 0.0039387681 0.097860001 0
0.03464843 0.0044288514 0.097860001 0
0.044624351 0.0049189348 0.097860001 0
0.05548548 0.00073202158 0.096935421 0
0.06873662 0.00095915806 0.099998854 0
0.077680275 0.00440082 0.099998854 0
0.087223649 0.0023132851 0.099998854 0
0.096509047 0.0012264183 0.099276274 0
-0.094780065 0.018648783 0.099185951 0
-0.085998982 0.014747644 0.099998854 0
-0.076288052 0.015174627 0.099998854 0
-0.067541152 0.01378036 0.099998847 0
-0.054549433 0.010916283 0.097351752 0
-0.045683205 0.0112582 0.097860001 0
-0.03570728 0.011748279 0.097860001 0
-0.025731359 0.012238356 0.097860001 0
-0.015755434 0.012728435 0.097860001 0
-0.0057795113 0.013218514 0.097860001 0
0.0041964101 0.013708591 0.097860001 0
0.014172331 0.01419867 0.097860001 0
0.024148256 0.014688748 0.097860001 0
0.034124181 0.015178827 0.097860001 0
0.044999965 0.010854244 0.097860001 0
0.054490127 0.010955518 0.096935421 0
0.06757652 0.013602488 0.099998854 0
0.07628803 0.015174547 0.099998854 0
0.08609587 0.017125444 0.099998854 0
0.094726153 0.018934723 0.099786922 0
-0.092122994 0.027945215 0.099998854 0
-0.081838235 0.028890714 0.099998854 0
-0.073658302 0.02415901 0.099998854 0
-0.063624971 0.026445923 0.099998847 0
-0.051407468 0.021235613 0.096935421 0
-0.04368905 0.021735821 0.097860001 0
-0.033713125 0.022225903 0.097860001 0
-0.023737203 0.022715986 0.097860001 0
-0.01376128 0.02320607 0.097860001 0
-0.0037853587 0.023696151 0.097860001 0
0.0061905626 0.024186235 0.097860001 0
0.016166486 0.024676315 0.097860001 0
0.026142407 0.0251664 0.097860001 0
0.035436265 0.024170985 0.097860001 0
0.044100117 0.020887468 0.097860001 0
0.051366419 0.021334654 0.096935421 0
0.063689731 0.026289526 0.099998847 0
0.073211133 0.025633078 0.099998854 0
0.084096819 0.021445055 0.099998854 0
0.092861414 0.025510838 0.096723072 0
-0.088407315 0.036426872 0.099276274 0
-0.072830446 0.030167375 0.099998854 0
-0.069393642 0.035781696 0.099998854 0
-0.057357617 0.038003568 0.099998847 0
-0.045802318 0.030895455 0.09703815 0
-0.037996627 0.03789112 0.097187586 0
-0.02445443 0.034472503 0.097860001 0
-0.014470483 0.034799218 0.097860001 0
-0.0044865352 0.035125937 0.097860001 0
0.0054974137 0.035452656 0.097860001 0
0.015481363 0.035779372 0.097860001 0
0.02546531 0.036106087 0.097860001 0
0.038135622 0.038091015 0.097155564 0
0.04607147 0.030943768 0.09698981 0
0.057502955 0.038014509 0.099998847 0
0.068304405 0.037819415 0.099998854 0
0.07647495 0.035015427 0.099998854 0
0.088271126 0.036755696 0.099276274 0
-0.084901005 0.045380585 0.099998854 0
-0.073808961 0.046535466 0.099998854 0
-0.062876701 0.045922957 0.099998854 0
-0.054627977 0.042393416 0.099998854 0
-0.048670884 0.048670944 0.099998847 0
-0.0309458 0.046217285 0.096935421 0
-0.026269417 0.044494148 0.097860001 0
-0.01630152 0.045147583 0.097860001 0
-0.0063336231 0.045801025 0.097860001 0
0.0025817156 0.045709088 0.097860001 0
0.012856133 0.045265995 0.097860001 0
0.022832055 0.045756072 0.097860001 0
0.03082519 0.046272453 0.09698981 0
0.048670944 0.048670884 0.099998854 0
0.052236222 0.045307748 0.099998854 0
0.064673856 0.043213625 0.099998854 0
0.072988547 0.048769325 0.099998854 0
0.084901065 0.045380495 0.099998854 0
-0.080504075 0.053606719 0.099131763 0
-0.079298958 0.051899895 0.099998854 0
-0.064552635 0.058009699 0.099998854 0
-0.053416267 0.056182347 0.099998854 0
-0.045307752 0.05223624 0.099998854 0
-0.038014509 0.057502955 0.099998854 0
-0.021334644 0.051366422 0.096935421 0
-0.011949297 0.053863928 0.09698981 0
-0.0046832548 0.053740993 0.097006917 0
0.0031165336 0.054507669 0.097081408 0
0.011834208 0.053782154 0.097464688 0
0.021235608 0.051407468 0.096935421 0
0.038003508 0.057357557 0.099998854 0
0.042393401 0.054627948 0.099998854 0
0.056182347 0.053416278 0.099998854 0
0.064551204 0.051206701 0.099998854 0
0.076036647 0.053579941 0.096723072 0
0.08041054 0.053768024 0.099771775 0
-0.074416339 0.061071984 0.099998854 0
-0.067737721 0.067486078 0.099276274 0
-0.051206671 0.064551234 0.099998854 0
-0.043213606 0.064673871 0.099998854 0
-0.037819393 0.068304405 0.099998854 0
-0.02628947 0.063689731 0.099998847 0
-0.013602428 0.067576468 0.099998847 0
-0.0033570379 0.068500444 0.099998854 0
0.0011190225 0.06872087 0.099998847 0
0.013780357 0.0675411 0.099998847 0
0.026445867 0.063624918 0.099998854 0
0.035781644 0.069393605 0.099998854 0
0.045922916 0.062876672 0.099998854 0
0.058009669 0.064552605 0.099998854 0
0.06748607 0.067737713 0.099276274 0
0.074416399 0.061071895 0.099998854 0
-0.061071865 0.074416429 0.099998854 0
-0.053579893 0.076036684 0.096723072 0
-0.04876928 0.072988585 0.099998854 0
-0.035015382 0.076474942 0.099998854 0
-0.025633018 0.073211133 0.099998854 0
-0.015174489 0.076287992 0.099998854 0
-0.0088016018 0.077577904 0.099998854 0
0.0028546653 0.076351278 0.099998854 0
0.015174609 0.076287992 0.099998854 0
0.024159007 0.07365828 0.099998854 0
0.030167326 0.072830379 0.099998854 0
0.046535403 0.073808938 0.099998854 0
0.051899813 0.079298936 0.099998854 0
0.061071955 0.074416339 0.099998854 0
-0.053767961 0.0804106 0.099771775 0
-0.045380436 0.084901094 0.099998854 0
-0.036755636 0.088271126 0.099276274 0
-0.021444995 0.084096819 0.099998854 0
-0.017125383 0.086095847 0.099998854 0
-0.0046265479 0.086664647 0.099998854 0
0 0.087782562 0.099998854 0
0.014747608 0.085998923 0.099998854 0
0.02889071 0.081838205 0.099998854 0
0.036426868 0.088407308 0.099276282 0
0.045380555 0.084901005 0.099998854 0
0.053606659 0.080504075 0.099131763 0
-0.025510779 0.092861414 0.096723072 0
-0.018934665 0.094726153 0.099786922 0
-0.0044150897 0.095923916 0.097542852 0
0.0012581227 0.096610129 0.099950433 0
0.018648727 0.094780028 0.099185959 0
0.027945185 0.092122965 0.099998854 0
-0.026134651 -0.06365411 0.10911182 0
-0.013214154 -0.067529663 0.10911182 0
0.00021411557 -0.068810053 0.10911182 0
0.013634156 -0.067446113 0.1091118 0
0.026530229 -0.063490286 0.10911182 0
-0.038050801 -0.057332426 0.10911182 0
0.038406804 -0.057094507 0.10911182 0
-0.048504628 -0.048807435 0.10911182 0
0.048807435 -0.048504688 0.10911182 0
-0.057094507 -0.038406804 0.10911182 0
0.057332359 -0.038050801 0.10911182 0
-0.063490286 -0.026530229 0.10911182 0
0.06365411 -0.026134655 0.10911181 0
-0.067446113 -0.013634156 0.1091118 0
0.067529663 -0.013214214 0.10911182 0
-0.068788901 -0.00042823114 0.10918575 0
-0.068831079 0 0.10903789 0
0.068809994 0.00021411481 0.10911182 0
-0.067529663 0.013214154 0.10911182 0
0.067446113 0.013634099 0.10911182 0
-0.06365411 0.026134655 0.10911182 0
0.063490227 0.026530229 0.10911181 0
-0.057332359 0.038050801 0.10911182 0
0.057094447 0.038406745 0.10911182 0
-0.048807375 0.048504628 0.10911182 0
0.048504628 0.048807375 0.10911182 0
-0.038406745 0.057094447 0.10911182 0
0.038050741 0.0573323 0.10911182 0
-0.026530167 0.063490227 0.10911182 0
-0.013634037 0.067446053 0.10911182 0
-0.00042822628 0.068788901 0.10918572 0
0 0.068831079 0.10903789 0
0.013214154 0.067529596 0.10911182 0
0.026134595 0.06365405 0.1091118 0
-0.025910787 -0.063722014 0.11910635 0
-0.012981344 -0.067552589 0.11910634 0
0.00044692674 -0.06878712 0.11910635 0
0.01385802 -0.067378208 0.11910632 0
0.026736543 -0.06338001 0.11910634 0
-0.037844487 -0.057442702 0.11910634 0
0.038587641 -0.056946106 0.11910634 0
-0.048323791 -0.048955843 0.11910634 0
0.048955835 -0.048323847 0.11910634 0
-0.056946106 -0.038587641 0.11910634 0
0.057442635 -0.037844487 0.11910634 0
-0.06338001 -0.026736543 0.11910635 0
0.063722014 -0.025910789 0.11910632 0
-0.067378208 -0.01385802 0.11910634 0
0.067552589 -0.012981402 0.11910635 0
-0.06874305 -0.00089385349 0.1191748 0
-0.068831079 0 0.11903789 0
0.068787068 0.00044692477 0.11910634 0
-0.067552589 0.012981342 0.11910634 0
0.067378208 0.013857963 0.11910634 0
-0.063722014 0.025910787 0.11910634 0
0.063379951 0.026736543 0.11910634 0
-0.057442635 0.037844487 0.11910634 0
0.056946039 0.038587581 0.11910634 0
-0.048955783 0.048323788 0.11910634 0
0.048323791 0.048955776 0.11910634 0
-0.038587581 0.056946039 0.11910635 0
0.037844427 0.057442576 0.11910634 0
-0.026736481 0.063379951 0.11910634 0
-0.013857903 0.067378148 0.11910634 0
-0.0008938447 0.068743043 0.11917477 0
0 0.068831079 0.11903789 0
0.012981343 0.067552529 0.11910634 0
0.02591073 0.063721955 0.11910632 0
-0.025686923 -0.063789926 0.12910086 0
-0.012748532 -0.067575522 0.12910086 0
0.00067973789 -0.068764187 0.12910086 0
0.014081884 -0.067310303 0.12910086 0
0.02694286 -0.063269734 0.12910086 0
-0.037638173 -0.057552978 0.12910086 0
0.038768478 -0.056797698 0.12910086 0
-0.048142955 -0.049104251 0.12910086 0
0.049104251 -0.048143014 0.12910086 0
-0.056797691 -0.038768478 0.12910086 0
0.057552915 -0.037638173 0.12910086 0
-0.063269734 -0.026942857 0.12910086 0
0.063789926 -0.025686925 0.12910086 0
-0.067310303 -0.014081884 0.12910084 0
0.067575514 -0.01274859 0.12910086 0
-0.068697184 -0.0013594758 0.12916383 0
-0.068831079 0 0.12903789 0
0.068764135 0.00067973498 0.12910086 0
-0.067575522 0.012748532 0.12910086 0
0.067310296 0.014081828 0.12910086 0
-0.063789926 0.025686922 0.12910086 0
0.063269675 0.026942857 0.12910084 0
-0.057552915 0.037638169 0.12910086 0
0.056797631 0.038768418 0.12910086 0
-0.049104188 0.048142951 0.12910086 0
0.048142951 0.049104184 0.12910086 0
-0.038768418 0.056797631 0.12910086 0
0.037638113 0.057552855 0.12910086 0
-0.026942797 0.063269675 0.12910086 0
-0.014081769 0.067310244 0.12910086 0
-0.0013594627 0.068697184 0.1291638 0
0 0.068831079 0.12903789 0
0.012748532 0.067575462 0.12910086 0
0.025686866 0.063789867 0.12910084 0
-0.025463056 -0.063857839 0.13909538 0
-0.012515721 -0.067598455 0.13909538 0
0.00091254909 -0.068741262 0.13909538 0
0.014305748 -0.067242391 0.13909537 0
0.027149174 -0.063159458 0.13909538 0
-0.037431858 -0.057663254 0.13909538 0
0.038949315 -0.05664929 0.13909538 0
-0.047962122 -0.049252659 0.13909538 0
0.049252659 -0.047962174 0.13909538 0
-0.056649283 -0.038949315 0.13909538 0
0.057663195 -0.037431858 0.13909538 0
-0.063159458 -0.027149174 0.13909538 0
0.063857839 -0.025463063 0.13909537 0
-0.067242391 -0.014305749 0.13909537 0
0.067598447 -0.012515778 0.13909538 0
-0.068651333 -0.0018250982 0.13915288 0
-0.068831079 0 0.13903788 0
0.06874121 0.00091254513 0.13909538 0
-0.067598447 0.012515721 0.13909538 0
0.067242384 0.014305694 0.13909538 0
-0.063857839 0.025463056 0.13909538 0
0.063159399 0.027149171 0.13909537 0
-0.057663195 0.037431855 0.13909538 0
0.056649223 0.038949255 0.13909538 0
-0.049252599 0.047962118 0.13909538 0
0.047962114 0.049252592 0.13909538 0
-0.038949255 0.056649223 0.13909538 0
0.037431795 0.057663135 0.13909538 0
-0.027149111 0.063159399 0.13909538 0
-0.014305633 0.067242332 0.13909538 0
-0.0018250811 0.068651319 0.13915285 0
0 0.068831079 0.13903788 0
0.012515721 0.067598395 0.13909538 0
0.025463004 0.063857779 0.13909537 0
-0.025239192 -0.063925743 0.1490899 0
-0.01228291 -0.06762138 0.1490899 0
0.0011453601 -0.068718337 0.1490899 0
0.014529613 -0.067174479 0.14908989 0
0.027355488 -0.063049175 0.1490899 0
-0.046891626 -0.050131194 0.14914192 0
-0.037225541 -0.05777353 0.1490899 0
0.038823918 -0.056752201 0.14880517 0
0.040048856 -0.05574692 0.1499441 0
-0.055746909 -0.040048856 0.1499441 0
-0.04867094 -0.04867094 0.14903787 0
0.04867094 -0.048671 0.14903787 0
0.050131187 -0.046891674 0.14914192 0
-0.056752197 -0.038823918 0.14880517 0
0.057773471 -0.037225541 0.1490899 0
-0.063049175 -0.027355488 0.1490899 0
0.063925743 -0.025239199 0.14908989 0
-0.067174479 -0.014529613 0.14908987 0
0.067621373 -0.012282965 0.1490899 0
-0.068605468 -0.0022907201 0.14914192 0
-0.068831079 0 0.14903787 0
0.068718277 0.0011453551 0.1490899 0
-0.067621373 0.01228291 0.1490899 0
0.067174479 0.014529559 0.1490899 0
-0.063925743 0.025239194 0.1490899 0
0.063049123 0.027355485 0.14908987 0
-0.057773471 0.037225541 0.1490899 0
0.056752138 0.038823858 0.14880517 0
-0.050131135 0.046891626 0.14914192 0
-0.04867088 0.04867094 0.14903787 0
0.04867094 0.04867088 0.14903787 0
0.055746857 0.040048797 0.1499441 0
-0.040048797 0.055746857 0.1499441 0
-0.038823858 0.056752138 0.14880517 0
0.037225481 0.057773411 0.1490899 0
0.046891615 0.050131127 0.14914192 0
-0.027355427 0.063049123 0.1490899 0
-0.014529498 0.06717442 0.1490899 0
-0.0022906992 0.068605468 0.14914191 0
0 0.068831079 0.14903787 0
0.01228291 0.06762132 0.1490899 0
0.025239138 0.063925683 0.14908987 0
-0.025015328 -0.063993655 0.15908441 0
-0.012050099 -0.067644313 0.15908442 0
0.0013781714 -0.068695404 0.15908442 0
0.014753476 -0.067106575 0.15908441 0
0.027561804 -0.062938899 0.15908442 0
-0.046529956 -0.050428011 0.15913096 0
-0.037019227 -0.057883807 0.15908442 0
0.038240489 -0.057231002 0.15903787 0
0.040381484 -0.055473939 0.15913096 0
-0.055473931 -0.040381484 0.15913096 0
-0.04867094 -0.04867094 0.15903787 0
0.04867094 -0.048671 0.15903787 0
0.050428003 -0.046530001 0.15913096 0
-0.057231002 -0.038240489 0.15903787 0
0.057883751 -0.037019227 0.15908442 0
-0.062938899 -0.027561802 0.15908441 0
0.063993648 -0.025015334 0.15908441 0
-0.067106575 -0.014753478 0.15908441 0
0.067644306 -0.012050153 0.15908441 0
-0.068559617 -0.0027563428 0.15913096 0
-0.068831079 0 0.15903787 0
0.068695351 0.0013781654 0.15908442 0
-0.067644306 0.012050099 0.15908442 0
0.067106575 0.014753424 0.15908442 0
-0.063993648 0.025015328 0.15908442 0
0.062938839 0.027561799 0.15908441 0
-0.057883751 0.037019223 0.15908441 0
0.057230938 0.038240429 0.15903787 0
-0.050427951 0.046529956 0.15913096 0
-0.04867088 0.04867094 0.15903787 0
0.04867094 0.04867088 0.15903787 0
0.055473879 0.040381424 0.15913096 0
-0.040381424 0.055473879 0.15913096 0
-0.038240429 0.057230938 0.15903787 0
0.037019163 0.057883691 0.15908441 0
0.046529941 0.050427943 0.15913096 0
-0.027561741 0.062938839 0.15908442 0
-0.014753362 0.067106515 0.15908441 0
-0.0027563174 0.068559602 0.15913096 0
0 0.068831079 0.15903787 0
0.012050099 0.067644246 0.15908442 0
0.025015274 0.063993588 0.15908441 0
-0.024791462 -0.064061567 0.16907895 0
-0.011817287 -0.067667238 0.16907895 0
0.0016109827 -0.068672471 0.16907895 0
0.014977342 -0.06703867 0.16907895 0
0.02776812 -0.062828615 0.16907895 0
-0.046168283 -0.050724834 0.16912001 0
-0.036812913 -0.05799409 0.16907895 0
0.038240489 -0.057231002 0.16903788 0
0.040743157 -0.055177122 0.16912001 0
-0.055177107 -0.040743157 0.16912001 0
-0.04867094 -0.04867094 0.16903788 0
0.04867094 -0.048671 0.16903788 0
0.050724819 -0.046168327 0.16912001 0
-0.057231002 -0.038240489 0.16903788 0
0.05799403 -0.036812909 0.16907895 0
-0.062828623 -0.02776812 0.16907895 0
0.064061567 -0.024791472 0.16907895 0
-0.06703867 -0.014977342 0.16907895 0
0.067667231 -0.011817341 0.16907895 0
-0.068513758 -0.0032219654 0.16912001 0
-0.068831079 0 0.16903788 0
0.068672419 0.0016109756 0.16907895 0
-0.067667231 0.011817288 0.16907895 0
0.067038663 0.014977289 0.16907895 0
-0.064061567 0.024791462 0.16907895 0
0.062828563 0.027768113 0.16907895 0
-0.057994027 0.036812913 0.16907895 0
0.057230938 0.038240429 0.16903788 0
-0.050724775 0.046168283 0.16912001 0
-0.04867088 0.04867094 0.16903788 0
0.04867094 0.04867088 0.16903788 0
0.055177063 0.040743098 0.16912001 0
-0.040743098 0.055177063 0.16912001 0
-0.038240429 0.057230938 0.16903788 0
0.036812849 0.057993971 0.16907895 0
0.046168268 0.05072476 0.16912001 0
-0.027768057 0.062828563 0.16907895 0
-0.014977228 0.067038611 0.16907895 0
-0.0032219356 0.068513744 0.16912001 0
0 0.068831079 0.16903788 0
0.011817288 0.067667179 0.16907895 0
0.024791408 0.064061508 0.16907895 0
-0.024567597 -0.064129472 0.17907348 0
-0.01342827 -0.067508571 0.17903787 0
-0.0097406823 -0.067871764 0.17910907 0
0.0018437939 -0.068649538 0.17907348 0
0.015201204 -0.066970758 0.17907347 0
0.027974434 -0.062718347 0.17907348 0
-0.045806609 -0.05102165 0.17910907 0
-0.036606595 -0.058104366 0.17907348 0
0.038240489 -0.057231002 0.17903787 0
0.041104831 -0.054880306 0.17910907 0
-0.054880291 -0.041104831 0.17910907 0
-0.04867094 -0.04867094 0.17903787 0
0.04867094 -0.048671 0.17903787 0
0.051021636 -0.045806654 0.17910907 0
-0.057231002 -0.038240489 0.17903787 0
0.058104306 -0.036606595 0.17907348 0
-0.062718347 -0.027974434 0.17907347 0
0.064129472 -0.024567606 0.17907347 0
-0.066970758 -0.015201205 0.17907345 0
0.067508571 -0.01342833 0.17903787 0
-0.0684679 -0.0036875878 0.17910907 0
0.067871749 -0.0097407261 0.17910907 0
-0.068351418 0.0048703412 0.17907348 0
0.068649486 0.0018437858 0.17907348 0
-0.067508571 0.01342827 0.17903787 0
0.066970751 0.015201154 0.17907348 0
-0.064129472 0.024567597 0.17907348 0
0.062718287 0.027974427 0.17907345 0
-0.058104306 0.036606595 0.17907348 0
0.057230938 0.038240429 0.17903787 0
-0.051021591 0.045806609 0.17910907 0
-0.04867088 0.04867094 0.17903787 0
0.04867094 0.04867088 0.17903787 0
0.054880247 0.041104771 0.17910907 0
-0.041104771 0.054880247 0.17910907 0
-0.038240429 0.057230938 0.17903787 0
0.036606535 0.058104247 0.17907347 0
0.045806594 0.051021576 0.17910907 0
-0.027974373 0.062718287 0.17907347 0
-0.015201094 0.066970699 0.17907347 0
-0.0036875545 0.068467885 0.17910905 0
0.0048703412 0.068351395 0.17907348 0
0.01342827 0.067508511 0.17903787 0
0.024567548 0.064129412 0.17907347 0
-0.024343731 -0.064197376 0.18906799 0
-0.01342827 -0.067508571 0.18903787 0
-0.0092750592 -0.06791763 0.18909812 0
0.0020766053 -0.068626612 0.18906799 0
0.015425069 -0.066902846 0.18906799 0
0.027556282 -0.062941849 0.18879056 0
0.030054154 -0.061606705 0.18990028 0
-0.045444936 -0.051318467 0.18909812 0
-0.036400281 -0.058214642 0.189068 0
0.038240489 -0.057231002 0.18903787 0
0.041466508 -0.05458349 0.18909812 0
-0.054583475 -0.041466508 0.18909812 0
-0.04867094 -0.04867094 0.18903787 0
0.04867094 -0.048671 0.18903787 0
0.051318452 -0.04544498 0.18909812 0
-0.061606705 -0.030054154 0.18990028 0
-0.057231002 -0.038240489 0.18903787 0
0.058214586 -0.036400281 0.189068 0
-0.062941849 -0.027556282 0.18879056 0
0.064197376 -0.02434374 0.18906799 0
-0.066902846 -0.015425069 0.18906799 0
0.067508571 -0.01342833 0.18903787 0
-0.068422042 -0.0041532107 0.18909812 0
0.067917608 -0.0092751011 0.18909812 0
-0.068374343 0.0046375296 0.18906799 0
0.06862656 0.002076596 0.189068 0
-0.067508571 0.01342827 0.18903787 0
0.066902846 0.01542502 0.189068 0
-0.064197376 0.024343733 0.18906799 0
0.06294179 0.027556276 0.18879056 0
-0.058214586 0.036400281 0.18906799 0
0.057230938 0.038240429 0.18903787 0
0.061606646 0.030054135 0.18990028 0
-0.051318407 0.045444936 0.18909812 0
-0.04867088 0.04867094 0.18903787 0
0.04867094 0.04867088 0.18903787 0
0.05458343 0.041466448 0.18909812 0
-0.041466448 0.05458343 0.18909812 0
-0.038240429 0.057230938 0.18903787 0
0.036400221 0.058214527 0.189068 0
0.045444921 0.051318392 0.18909812 0
-0.030054092 0.061606646 0.18990028 0
-0.027556218 0.06294179 0.18879056 0
-0.015424959 0.066902786 0.189068 0
-0.004153173 0.068422019 0.1890981 0
0.0046375296 0.068374321 0.18906799 0
0.01342827 0.067508511 0.18903787 0
0.024343681 0.064197317 0.18906799 0
-0.024119865 -0.064265296 0.19906253 0
-0.01342827 -0.067508571 0.19903788 0
-0.0088094361 -0.067963481 0.19908717 0
0.0023094167 -0.068603687 0.19906253 0
0.015648933 -0.066834942 0.19906253 0
0.026340481 -0.063591711 0.19903788 0
0.030433647 -0.061403863 0.19908717 0
-0.045083269 -0.05161529 0.19908717 0
-0.036193967 -0.058324918 0.19906251 0
0.038240489 -0.057231002 0.19903788 0
0.041828185 -0.054286674 0.19908717 0
-0.054286651 -0.041828185 0.19908717 0
-0.04867094 -0.04867094 0.19903788 0
0.04867094 -0.048671 0.19903788 0
0.051615268 -0.045083307 0.19908717 0
-0.061403863 -0.030433647 0.19908717 0
-0.057231002 -0.038240489 0.19903788 0
0.058324862 -0.036193967 0.19906253 0
-0.063591711 -0.026340481 0.19903788 0
0.064265296 -0.024119878 0.19906253 0
-0.066834942 -0.015648933 0.19906251 0
0.067508571 -0.01342833 0.19903788 0
-0.068376184 -0.0046188333 0.19908717 0
0.067963466 -0.0088094762 0.19908717 0
-0.068397276 0.0044047181 0.19906253 0
0.068603627 0.0023094062 0.19906253 0
-0.067508571 0.01342827 0.19903788 0
0.066834927 0.015648885 0.19906253 0
-0.064265288 0.024119865 0.19906253 0
0.063591652 0.026340481 0.19903788 0
-0.058324862 0.036193967 0.19906253 0
0.057230938 0.038240429 0.19903788 0
0.061403796 0.030433627 0.19908716 0
-0.051615227 0.045083269 0.19908717 0
-0.04867088 0.04867094 0.19903788 0
0.04867094 0.04867088 0.19903788 0
0.054286614 0.041828126 0.19908717 0
-0.041828126 0.054286614 0.19908717 0
-0.038240429 0.057230938 0.19903788 0
0.036193907 0.058324806 0.19906253 0
0.045083247 0.051615208 0.19908717 0
-0.030433588 0.061403796 0.19908717 0
-0.026340419 0.063591652 0.19903788 0
-0.015648823 0.066834882 0.19906253 0
-0.0046187914 0.068376169 0.19908716 0
0.0044047181 0.068397254 0.19906251 0
0.01342827 0.067508511 0.19903788 0
0.024119817 0.064265229 0.19906253 0
-0.023896001 -0.0643332 0.20905706 0
-0.01342827 -0.067508571 0.20903789 0
-0.0083438139 -0.068009347 0.20907621 0
0.0025422277 -0.068580747 0.20905703 0
0.015872799 -0.066767037 0.20905705 0
0.026340481 -0.063591711 0.20903789 0
0.030846279 -0.061183304 0.20907621 0
-0.044721596 -0.051912107 0.20907621 0
-0.035987649 -0.058435194 0.20905706 0
0.038240489 -0.057231002 0.20903789 0
0.042189859 -0.053989857 0.20907621 0
-0.053989835 -0.042189859 0.20907621 0
-0.04867094 -0.04867094 0.20903789 0
0.04867094 -0.048671 0.20903789 0
0.051912084 -0.044721633 0.20907621 0
-0.061183304 -0.030846279 0.20907621 0
-0.057231002 -0.038240489 0.20903789 0
0.058435142 -0.035987653 0.20905705 0
-0.063591711 -0.026340481 0.20903789 0
0.0643332 -0.023896012 0.20905703 0
-0.066767037 -0.015872797 0.20905705 0
0.067508571 -0.01342833 0.20903789 0
-0.068330325 -0.0050844555 0.20907621 0
0.068009324 -0.0083438512 0.20907621 0
-0.068420202 0.004171907 0.20905705 0
0.068580702 0.0025422163 0.20905706 0
-0.067508571 0.01342827 0.20903789 0
0.066767022 0.015872749 0.20905705 0
-0.0643332 0.023896001 0.20905706 0
0.063591652 0.026340481 0.20903789 0
-0.058435142 0.035987649 0.20905705 0
0.057230938 0.038240429 0.20903789 0
0.061183244 0.030846255 0.20907621 0
-0.051912047 0.044721596 0.20907621 0
-0.04867088 0.04867094 0.20903789 0
0.04867094 0.04867088 0.20903789 0
0.053989798 0.042189799 0.20907621 0
-0.042189799 0.053989798 0.20907621 0
-0.038240429 0.057230938 0.20903789 0
0.03598759 0.058435082 0.20905705 0
0.044721574 0.051912025 0.20907621 0
-0.030846216 0.061183244 0.20907621 0
-0.026340419 0.063591652 0.20903789 0
-0.015872689 0.066766977 0.20905705 0
-0.0050844098 0.068330303 0.20907621 0
0.004171907 0.068420179 0.20905706 0
0.01342827 0.067508511 0.20903789 0
0.023895953 0.064333141 0.20905706 0
-0.023672137 -0.064401105 0.21905157 0
-0.01342827 -0.067508571 0.21903789 0
-0.0078781918 -0.068055205 0.21906526 0
0.0027750391 -0.068557821 0.21905157 0
0.016096663 -0.066699125 0.21905158 0
0.026340481 -0.063591711 0.21903789 0
0.031258907 -0.060962748 0.21906526 0
-0.044359922 -0.052208923 0.21906526 0
-0.035781335 -0.05854547 0.21905158 0
0.038240489 -0.057231002 0.21903789 0
0.042551532 -0.053693041 0.21906526 0
-0.053693019 -0.042551532 0.21906526 0
-0.04867094 -0.04867094 0.21903789 0
0.04867094 -0.048671 0.21903789 0
0.0522089 -0.04435996 0.21906526 0
-0.060962748 -0.031258907 0.21906526 0
-0.057231002 -0.038240489 0.21903789 0
0.058545422 -0.035781335 0.21905157 0
-0.063591711 -0.026340481 0.21903789 0
0.064401105 -0.023672149 0.21905157 0
-0.066699132 -0.016096663 0.21905157 0
0.067508571 -0.01342833 0.21903789 0
-0.068284467 -0.0055500781 0.21906526 0
0.068055183 -0.0078782272 0.21906526 0
-0.068443127 0.0039390959 0.21905157 0
0.068557777 0.002775027 0.21905158 0
-0.067508571 0.01342827 0.21903789 0
0.066699117 0.016096614 0.21905157 0
-0.064401105 0.023672137 0.21905157 0
0.063591652 0.026340481 0.21903789 0
-0.058545418 0.035781335 0.21905157 0
0.057230938 0.038240429 0.21903789 0
0.060962684 0.031258885 0.21906526 0
-0.052208863 0.044359922 0.21906526 0
-0.04867088 0.04867094 0.21903789 0
0.04867094 0.04867088 0.21903789 0
0.053692982 0.042551473 0.21906526 0
-0.042551473 0.053692982 0.21906526 0
-0.038240429 0.057230938 0.21903789 0
0.035781275 0.058545362 0.21905158 0
0.0443599 0.052208841 0.21906526 0
-0.031258848 0.060962684 0.21906526 0
-0.026340419 0.063591652 0.21903789 0
-0.016096555 0.066699065 0.21905157 0
-0.0055500288 0.068284445 0.21906526 0
0.0039390959 0.068443112 0.21905157 0
0.01342827 0.067508511 0.21903789 0
0.023672089 0.064401045 0.21905157 0
-0.03290949 -0.060080495 0.22905432 0
-0.02344827 -0.064469017 0.22904611 0
-0.01342827 -0.067508571 0.22903788 0
-0.0074125691 -0.068101063 0.22905432 0
0.0030078504 -0.068534896 0.22904611 0
0.016320527 -0.066631213 0.22904611 0
0.026340481 -0.063591711 0.22903788 0
0.031671539 -0.060742192 0.22905432 0
-0.043998249 -0.052505743 0.22905432 0
-0.038240548 -0.057231002 0.22903788 0
0.038240489 -0.057231002 0.22903788 0
0.042913206 -0.053396225 0.22905432 0
-0.053396199 -0.042913206 0.22905432 0
-0.04867094 -0.04867094 0.22903788 0
0.04867094 -0.048671 0.22903788 0
0.052505717 -0.043998286 0.22905432 0
-0.060742192 -0.031671539 0.22905432 0
-0.057231002 -0.038240489 0.22903788 0
0.057230938 -0.038240548 0.22903788 0
0.060080461 -0.03290949 0.22905432 0
-0.063591711 -0.026340481 0.22903788 0
0.064469017 -0.023448285 0.22904611 0
-0.06663122 -0.016320527 0.22904611 0
0.067508571 -0.01342833 0.22903788 0
-0.068238616 -0.0060157008 0.22905432 0
0.068101034 -0.0074126022 0.22905432 0
-0.06846606 0.0037062846 0.22904611 0
0.068534844 0.0030078371 0.22904611 0
-0.067508571 0.01342827 0.22903788 0
0.066631205 0.01632048 0.22904611 0
-0.064469017 0.02344827 0.22904611 0
0.063591652 0.026340481 0.22903788 0
-0.060080461 0.03290949 0.22905432 0
-0.057230938 0.038240548 0.22903788 0
0.057230938 0.038240429 0.22903788 0
0.060742132 0.031671513 0.22905432 0
-0.052505679 0.043998249 0.22905432 0
-0.04867088 0.04867094 0.22903788 0
0.04867094 0.04867088 0.22903788 0
0.053396165 0.042913146 0.22905432 0
-0.042913146 0.053396165 0.22905432 0
-0.038240429 0.057230938 0.22903788 0
0.038240489 0.057230879 0.22903788 0
0.043998227 0.052505657 0.22905432 0
-0.031671479 0.060742132 0.22905432 0
-0.026340419 0.063591652 0.22903788 0
-0.01632042 0.066631153 0.22904611 0
-0.0060156472 0.068238586 0.22905432 0
0.0037062846 0.068466045 0.22904611 0
0.01342827 0.067508511 0.22903788 0
0.023448225 0.064468957 0.22904611 0
0.032909431 0.060080402 0.22905432 0
-0.032496862 -0.060301051 0.23904337 0
-0.023224406 -0.064536929 0.23904063 0
-0.01342827 -0.067508571 0.2390379 0
-0.0069469465 -0.068146929 0.23904337 0
0.0032406617 -0.068511963 0.23904063 0
0.01654439 -0.066563308 0.23904063 0
0.026340481 -0.063591711 0.2390379 0
0.032084167 -0.060521632 0.23904337 0
-0.043636583 -0.052802563 0.23904337 0
-0.038240548 -0.057231002 0.2390379 0
0.038240489 -0.057231002 0.2390379 0
0.043274879 -0.053099409 0.23904337 0
-0.053099379 -0.043274879 0.23904337 0
-0.04867094 -0.04867094 0.2390379 0
0.04867094 -0.048671 0.2390379 0
0.052802533 -0.043636613 0.23904337 0
-0.060521632 -0.032084167 0.23904337 0
-0.057231002 -0.038240489 0.2390379 0
0.057230938 -0.038240548 0.2390379 0
0.060301017 -0.032496862 0.23904337 0
-0.063591711 -0.026340481 0.2390379 0
0.064536929 -0.023224421 0.23904064 0
-0.066563308 -0.01654439 0.23904064 0
0.067508571 -0.01342833 0.2390379 0
-0.06819275 -0.0064813234 0.23904337 0
0.068146899 -0.0069469777 0.23904337 0
-0.068488993 0.0034734732 0.23904061 0
0.068511918 0.0032406473 0.23904063 0
-0.067508571 0.01342827 0.2390379 0
0.066563293 0.016544346 0.23904064 0
-0.064536929 0.023224406 0.23904063 0
0.063591652 0.026340481 0.2390379 0
-0.060301017 0.032496862 0.23904337 0
-0.057230938 0.038240548 0.2390379 0
0.057230938 0.038240429 0.2390379 0
0.060521573 0.032084141 0.23904337 0
-0.052802503 0.043636583 0.23904337 0
-0.04867088 0.04867094 0.2390379 0
0.04867094 0.04867088 0.2390379 0
0.053099349 0.04327482 0.23904337 0
-0.04327482 0.053099349 0.23904337 0
-0.038240429 0.057230938 0.2390379 0
0.038240489 0.057230879 0.2390379 0
0.043636553 0.052802473 0.23904337 0
-0.032084107 0.060521573 0.23904337 0
-0.026340419 0.063591652 0.2390379 0
-0.016544284 0.066563256 0.23904064 0
-0.0064812656 0.06819272 0.23904337 0
0.0034734732 0.068488978 0.23904064 0
0.01342827 0.067508511 0.2390379 0
0.023224361 0.06453687 0.23904064 0
0.032496803 0.060300957 0.23904337 0
-0.032084227 -0.060521603 0.24903242 0
-0.02634054 -0.063591652 0.24903789 0
-0.016544405 -0.066563293 0.24903515 0
-0.0064813234 -0.06819278 0.24903242 0
0.0034734732 -0.06848903 0.24903516 0
0.01342827 -0.067508571 0.24903789 0
0.023224361 -0.064536974 0.24903515 0
0.032496803 -0.06030108 0.24903242 0
-0.043274909 -0.053099379 0.24903242 0
-0.038240548 -0.057231002 0.24903789 0
0.038240489 -0.057231002 0.24903789 0
0.043636553 -0.052802593 0.24903242 0
-0.052802563 -0.043636553 0.24903242 0
-0.04867094 -0.04867094 0.24903789 0
0.04867094 -0.048671 0.24903789 0
0.053099349 -0.043274939 0.24903242 0
-0.06030108 -0.032496803 0.24903242 0
-0.057231002 -0.038240489 0.24903789 0
0.057230938 -0.038240548 0.24903789 0
0.060521573 -0.032084227 0.24903242 0
-0.064536974 -0.023224361 0.24903515 0
0.063591652 -0.02634054 0.24903789 0
-0.067508571 -0.01342827 0.24903789 0
0.066563293 -0.01654445 0.24903515 0
-0.068146899 -0.0069469465 0.24903242 0
0.06819275 -0.0064813527 0.24903242 0
-0.068511918 0.0032406617 0.24903516 0
0.068488993 0.0034734579 0.24903515 0
-0.066563293 0.016544405 0.24903515 0
0.067508571 0.01342821 0.24903789 0
-0.063591652 0.02634054 0.24903789 0
0.064536929 0.023224346 0.24903516 0
-0.060521573 0.032084227 0.24903242 0
-0.057230938 0.038240548 0.24903789 0
0.057230938 0.038240429 0.24903789 0
0.060301013 0.032496769 0.24903242 0
-0.053099319 0.043274909 0.24903242 0
-0.04867088 0.04867094 0.24903789 0
0.04867094 0.04867088 0.24903789 0
0.052802533 0.043636493 0.24903242 0
-0.043636493 0.052802533 0.24903242 0
-0.038240429 0.057230938 0.24903789 0
0.038240489 0.057230879 0.24903789 0
0.043274879 0.05309929 0.24903242 0
-0.032496739 0.060301017 0.24903242 0
-0.023224283 0.064536914 0.24903516 0
-0.01342815 0.067508511 0.24903789 0
-0.0069468841 0.06814687 0.24903242 0
0.0032406617 0.068511903 0.24903515 0
0.01654439 0.066563234 0.24903515 0
0.026340481 0.063591592 0.24903789 0
0.032084167 0.060521513 0.24903242 0
-0.031671599 -0.060742158 0.25902146 0
-0.02634054 -0.063591652 0.25903791 0
-0.01632054 -0.066631205 0.25902969 0
-0.0060157008 -0.068238646 0.25902146 0
0.0037062846 -0.068466105 0.25902969 0
0.01342827 -0.067508571 0.25903791 0
0.023448225 -0.064469069 0.25902969 0
0.032909431 -0.060080521 0.25902146 0
-0.042913236 -0.053396199 0.25902146 0
-0.038240548 -0.057231002 0.25903791 0
0.038240489 -0.057231002 0.25903791 0
0.043998227 -0.052505776 0.25902146 0
-0.052505743 -0.043998227 0.25902146 0
-0.04867094 -0.04867094 0.25903791 0
0.04867094 -0.048671 0.25903791 0
0.053396165 -0.042913266 0.25902146 0
-0.060080521 -0.032909431 0.25902146 0
-0.057231002 -0.038240489 0.25903791 0
0.057230938 -0.038240548 0.25903791 0
0.060742132 -0.031671599 0.25902146 0
-0.064469069 -0.023448225 0.25902969 0
0.063591652 -0.02634054 0.25903791 0
-0.067508571 -0.01342827 0.25903791 0
0.066631205 -0.016320586 0.25902969 0
-0.068101034 -0.0074125691 0.25902146 0
0.068238616 -0.0060157282 0.25902146 0
-0.068534851 0.0030078504 0.25902969 0
0.06846606 0.003706268 0.25902969 0
-0.066631205 0.01632054 0.25902969 0
0.067508571 0.01342821 0.25903791 0
-0.063591652 0.02634054 0.25903791 0
0.064469017 0.02344821 0.25902969 0
-0.060742132 0.031671599 0.25902146 0
-0.057230938 0.038240548 0.25903791 0
0.057230938 0.038240429 0.25903791 0
0.060080461 0.032909397 0.25902146 0
-0.053396136 0.042913236 0.25902146 0
-0.04867088 0.04867094 0.25903791 0
0.04867094 0.04867088 0.25903791 0
0.052505717 0.043998167 0.25902146 0
-0.043998167 0.052505717 0.25902146 0
-0.038240429 0.057230938 0.25903791 0
0.038240489 0.057230879 0.25903791 0
0.042913206 0.053396106 0.25902146 0
-0.032909371 0.060080461 0.25902146 0
-0.023448151 0.06446901 0.25902969 0
-0.01342815 0.067508511 0.25903791 0
-0.0074125025 0.068101004 0.25902146 0
0.0030078504 0.068534836 0.25902969 0
0.016320527 0.066631146 0.25902969 0
0.026340481 0.063591592 0.25903791 0
0.031671539 0.060742073 0.25902146 0
-0.031258967 -0.060962714 0.26901054 0
-0.02634054 -0.063591652 0.2690379 0
-0.016096674 -0.066699117 0.26902419 0
-0.0055500781 -0.068284504 0.26901054 0
0.0039390959 -0.068443172 0.26902422 0
0.01342827 -0.067508571 0.2690379 0
0.023672089 -0.064401157 0.26902419 0
-0.042551562 -0.053693019 0.26901054 0
-0.038240548 -0.057231002 0.2690379 0
0.035781275 -0.058545485 0.26902422 0
0.0443599 -0.05220896 0.26901054 0
-0.052208923 -0.0443599 0.26901054 0
-0.04867094 -0.04867094 0.2690379 0
0.04867094 -0.048671 0.2690379 0
0.053692982 -0.042551592 0.26901054 0
-0.058545485 -0.035781275 0.26902422 0
0.057230938 -0.038240548 0.2690379 0
0.060962684 -0.031258967 0.26901054 0
-0.06440115 -0.023672089 0.26902422 0
0.063591652 -0.02634054 0.2690379 0
-0.067508571 -0.01342827 0.2690379 0
0.066699117 -0.016096722 0.26902422 0
-0.068055183 -0.0078781918 0.26901054 0
0.068284467 -0.0055501033 0.26901054 0
-0.068557777 0.0027750391 0.26902419 0
0.068443127 0.0039390782 0.26902419 0
-0.066699117 0.016096674 0.26902422 0
0.067508571 0.01342821 0.2690379 0
-0.063591652 0.02634054 0.2690379 0
0.064401105 0.023672078 0.26902419 0
-0.060962684 0.031258967 0.26901054 0
-0.057230938 0.038240548 0.2690379 0
0.058545418 0.035781227 0.26902422 0
-0.053692956 0.042551562 0.26901054 0
-0.04867088 0.04867094 0.2690379 0
0.04867094 0.04867088 0.2690379 0
0.0522089 0.04435984 0.26901054 0
-0.04435984 0.0522089 0.26901054 0
-0.035781216 0.058545418 0.26902422 0
0.038240489 0.057230879 0.2690379 0
0.042551532 0.053692922 0.26901054 0
-0.023672014 0.064401098 0.26902419 0
-0.01342815 0.067508511 0.2690379 0
-0.007878121 0.068055145 0.26901054 0
0.0027750391 0.068557762 0.26902422 0
0.016096663 0.066699058 0.26902422 0
0.026340481 0.063591592 0.2690379 0
0.031258907 0.060962625 0.26901054 0
-0.030846339 -0.061183266 0.27899957 0
-0.02634054 -0.063591652 0.27903789 0
-0.015872808 -0.066767022 0.27901876 0
-0.0050844555 -0.068330362 0.27899957 0
0.004171907 -0.068420246 0.27901873 0
0.01342827 -0.067508571 0.27903789 0
0.023895953 -0.064333245 0.27901876 0
-0.042189896 -0.053989835 0.27899957 0
-0.038240548 -0.057231002 0.27903789 0
0.03598759 -0.058435209 0.27901873 0
0.044721574 -0.051912144 0.27899957 0
-0.051912107 -0.044721574 0.27899957 0
-0.04867094 -0.04867094 0.27903789 0
0.04867094 -0.048671 0.27903789 0
0.053989798 -0.042189918 0.27899957 0
-0.058435209 -0.03598759 0.27901873 0
0.057230938 -0.038240548 0.27903789 0
0.061183244 -0.030846339 0.27899957 0
-0.064333253 -0.023895953 0.27901873 0
0.063591652 -0.02634054 0.27903789 0
-0.067508571 -0.01342827 0.27903789 0
0.066767022 -0.015872858 0.27901876 0
