# .PCD v0.7 - Point Cloud Data file format
VERSION 0.7
FIELDS x y z rgb
SIZE 4 4 4 4
TYPE F F F F
COUNT 1 1 1 1
WIDTH 1619
HEIGHT 1
VIEWPOINT 0 0 0 1 0 0 0
POINTS 1619
DATA ascii
0.27500001 -0.0049999999 -0.36500001 0
0.30500001 -0.035 -0.39500001 0
0.30500001 -0.025 -0.39500001 0
0.315 -0.025 -0.39500001 0
0.30500001 -0.035 -0.38499999 0
0.30500001 -0.025 -0.38499999 0
0.315 -0.025 -0.38499999 0
0.30500001 -0.015 -0.39500001 0
0.315 -0.015 -0.39500001 0
0.30500001 -0.015 -0.38499999 0
0.30500001 -0.035 -0.375 0
0.30500001 -0.025 -0.375 0
0.315 -0.025 -0.375 0
0.30500001 -0.035 -0.36500001 0
0.315 -0.035 -0.36500001 0
0.30500001 -0.025 -0.36500001 0
0.315 -0.025 -0.36500001 0
0.30500001 -0.015 -0.375 0
0.315 -0.015 -0.375 0
0.30500001 -0.015 -0.36500001 0
0.315 -0.015 -0.36500001 0
0.315 -0.0049999999 -0.36500001 0
0.30500001 -0.045000002 -0.35499999 0
0.315 -0.045000002 -0.35499999 0
0.30500001 -0.055 -0.345 0
0.30500001 -0.045000002 -0.345 0
0.315 -0.045000002 -0.345 0
0.30500001 -0.055 -0.33500001 0
0.315 -0.055 -0.33500001 0
0.30500001 -0.045000002 -0.33500001 0
0.315 -0.045000002 -0.33500001 0
0.30500001 -0.055 -0.32499999 0
0.30500001 -0.045000002 -0.32499999 0
0.315 -0.045000002 -0.32499999 0
0.26499999 -0.0049999999 -0.35499999 0
0.27500001 -0.0049999999 -0.35499999 0
0.26499999 -0.0049999999 -0.345 0
0.27500001 -0.0049999999 -0.345 0
0.26499999 -0.0049999999 -0.33500001 0
0.27500001 -0.0049999999 -0.33500001 0
0.26499999 -0.0049999999 -0.32499999 0
0.27500001 -0.0049999999 -0.32499999 0
0.30500001 -0.035 -0.35499999 0
0.315 -0.035 -0.35499999 0
0.30500001 -0.025 -0.35499999 0
0.315 -0.025 -0.35499999 0
0.30500001 -0.035 -0.345 0
0.315 -0.035 -0.345 0
0.30500001 -0.025 -0.345 0
0.315 -0.025 -0.345 0
0.30500001 -0.015 -0.35499999 0
0.315 -0.015 -0.35499999 0
0.30500001 -0.0049999999 -0.35499999 0
0.30500001 -0.015 -0.345 0
0.315 -0.015 -0.345 0
0.30500001 -0.0049999999 -0.345 0
0.30500001 -0.035 -0.33500001 0
0.315 -0.035 -0.33500001 0
0.30500001 -0.025 -0.33500001 0
0.30500001 -0.035 -0.32499999 0
0.315 -0.035 -0.32499999 0
0.30500001 -0.025 -0.32499999 0
0.285 -0.0049999999 -0.33500001 0
0.285 -0.0049999999 -0.32499999 0
0.30500001 -0.015 -0.33500001 0
0.30500001 -0.0049999999 -0.33500001 0
0.30500001 -0.015 -0.32499999 0
0.26499999 -0.205 -0.315 0
0.27500001 -0.205 -0.315 0
0.26499999 -0.205 -0.30500001 0
0.27500001 -0.205 -0.30500001 0
0.27500001 -0.215 -0.29499999 0
0.26499999 -0.205 -0.29499999 0
0.27500001 -0.205 -0.29499999 0
0.26499999 -0.215 -0.285 0
0.27500001 -0.215 -0.285 0
0.26499999 -0.205 -0.285 0
0.27500001 -0.205 -0.285 0
0.26499999 -0.19499999 -0.315 0
0.27500001 -0.19499999 -0.315 0
0.26499999 -0.185 -0.315 0
0.27500001 -0.185 -0.315 0
0.26499999 -0.19499999 -0.30500001 0
0.27500001 -0.19499999 -0.30500001 0
0.26499999 -0.185 -0.30500001 0
0.27500001 -0.185 -0.30500001 0
0.26499999 -0.175 -0.315 0
0.27500001 -0.175 -0.315 0
0.26499999 -0.19499999 -0.29499999 0
0.27500001 -0.19499999 -0.29499999 0
0.26499999 -0.185 -0.29499999 0
0.27500001 -0.185 -0.29499999 0
0.26499999 -0.19499999 -0.285 0
0.27500001 -0.19499999 -0.285 0
0.26499999 -0.185 -0.285 0
0.27500001 -0.185 -0.285 0
0.285 -0.185 -0.315 0
0.285 -0.19499999 -0.30500001 0
0.29499999 -0.19499999 -0.30500001 0
0.285 -0.185 -0.30500001 0
0.285 -0.175 -0.315 0
0.285 -0.19499999 -0.29499999 0
0.29499999 -0.19499999 -0.29499999 0
0.285 -0.185 -0.29499999 0
0.285 -0.19499999 -0.285 0
0.285 -0.185 -0.285 0
0.26499999 -0.215 -0.27500001 0
0.27500001 -0.215 -0.27500001 0
0.26499999 -0.205 -0.27500001 0
0.27500001 -0.205 -0.27500001 0
0.26499999 -0.215 -0.26499999 0
0.27500001 -0.215 -0.26499999 0
0.26499999 -0.205 -0.26499999 0
0.27500001 -0.205 -0.26499999 0
0.26499999 -0.215 -0.255 0
0.27500001 -0.215 -0.255 0
0.26499999 -0.205 -0.255 0
0.27500001 -0.205 -0.255 0
0.26499999 -0.215 -0.245 0
0.27500001 -0.215 -0.245 0
0.26499999 -0.205 -0.245 0
0.27500001 -0.205 -0.245 0
0.29499999 -0.215 -0.27500001 0
0.26499999 -0.19499999 -0.27500001 0
0.27500001 -0.19499999 -0.27500001 0
0.27500001 -0.185 -0.27500001 0
0.26499999 -0.19499999 -0.26499999 0
0.27500001 -0.19499999 -0.26499999 0
0.26499999 -0.185 -0.26499999 0
0.27500001 -0.185 -0.26499999 0
0.27500001 -0.175 -0.26499999 0
0.27500001 -0.16500001 -0.26499999 0
0.27000001 -0.19 -0.25 0
0.27000001 -0.17 -0.25 0
0.285 -0.19499999 -0.27500001 0
0.285 -0.185 -0.255 0
0.29499999 -0.185 -0.255 0
0.285 -0.19499999 -0.245 0
0.29499999 -0.19499999 -0.245 0
0.285 -0.185 -0.245 0
0.29499999 -0.185 -0.245 0
0.285 -0.175 -0.255 0
0.29499999 -0.16500001 -0.255 0
0.285 -0.175 -0.245 0
0.29499999 -0.175 -0.245 0
0.285 -0.16500001 -0.245 0
0.29499999 -0.16500001 -0.245 0
0.26499999 -0.215 -0.235 0
0.27500001 -0.215 -0.235 0
0.26499999 -0.205 -0.235 0
0.27500001 -0.205 -0.235 0
0.26499999 -0.215 -0.22499999 0
0.27500001 -0.215 -0.22499999 0
0.26499999 -0.205 -0.22499999 0
0.27500001 -0.205 -0.22499999 0
0.26499999 -0.215 -0.215 0
0.27500001 -0.215 -0.215 0
0.26499999 -0.205 -0.215 0
0.27500001 -0.205 -0.215 0
0.27500001 -0.215 -0.205 0
0.26499999 -0.205 -0.205 0
0.27500001 -0.205 -0.205 0
0.255 -0.19499999 -0.22499999 0
0.26499999 -0.19499999 -0.235 0
0.27500001 -0.19499999 -0.235 0
0.27500001 -0.185 -0.235 0
0.26499999 -0.19499999 -0.22499999 0
0.27500001 -0.19499999 -0.22499999 0
0.27500001 -0.185 -0.22499999 0
0.26499999 -0.175 -0.235 0
0.27500001 -0.175 -0.235 0
0.26499999 -0.16500001 -0.235 0
0.27500001 -0.16500001 -0.235 0
0.255 -0.19499999 -0.215 0
0.26499999 -0.19499999 -0.215 0
0.27500001 -0.19499999 -0.215 0
0.27500001 -0.185 -0.215 0
0.26499999 -0.19499999 -0.205 0
0.27500001 -0.19499999 -0.205 0
0.26499999 -0.185 -0.205 0
0.27500001 -0.185 -0.205 0
0.285 -0.19499999 -0.235 0
0.285 -0.185 -0.235 0
0.285 -0.19499999 -0.22499999 0
0.285 -0.175 -0.235 0
0.285 -0.16500001 -0.235 0
0.285 -0.19499999 -0.215 0
0.285 -0.185 -0.215 0
0.285 -0.19499999 -0.205 0
0.285 -0.185 -0.205 0
0.27500001 -0.215 -0.19499999 0
0.26499999 -0.205 -0.19499999 0
0.27500001 -0.205 -0.19499999 0
0.26499999 -0.205 -0.185 0
0.27500001 -0.205 -0.185 0
0.26499999 -0.205 -0.175 0
0.27500001 -0.205 -0.175 0
0.27500001 -0.205 -0.16500001 0
0.255 -0.19499999 -0.19499999 0
0.27000001 -0.19 -0.19 0
0.26499999 -0.19499999 -0.175 0
0.27500001 -0.19499999 -0.175 0
0.26499999 -0.185 -0.175 0
0.27500001 -0.185 -0.175 0
0.26499999 -0.19499999 -0.16500001 0
0.27500001 -0.19499999 -0.16500001 0
0.26499999 -0.185 -0.16500001 0
0.27500001 -0.185 -0.16500001 0
0.26499999 -0.175 -0.175 0
0.27500001 -0.175 -0.175 0
0.26499999 -0.175 -0.16500001 0
0.27500001 -0.175 -0.16500001 0
0.285 -0.19499999 -0.19499999 0
0.285 -0.185 -0.19499999 0
0.285 -0.185 -0.185 0
0.285 -0.175 -0.175 0
0.285 -0.175 -0.16500001 0
0.27500001 -0.155 -0.26499999 0
0.27500001 -0.145 -0.26499999 0
0.27500001 -0.125 -0.26499999 0
0.27000001 -0.15000001 -0.25 0
0.26499999 -0.13500001 -0.255 0
0.27500001 -0.13500001 -0.255 0
0.26499999 -0.125 -0.255 0
0.27500001 -0.125 -0.255 0
0.26499999 -0.13500001 -0.245 0
0.27500001 -0.13500001 -0.245 0
0.26499999 -0.125 -0.245 0
0.27500001 -0.125 -0.245 0
0.285 -0.155 -0.255 0
0.29499999 -0.155 -0.255 0
0.285 -0.145 -0.255 0
0.285 -0.155 -0.245 0
0.29499999 -0.155 -0.245 0
0.285 -0.145 -0.245 0
0.29499999 -0.145 -0.245 0
0.285 -0.13500001 -0.255 0
0.29499999 -0.13500001 -0.255 0
0.285 -0.125 -0.255 0
0.29499999 -0.125 -0.255 0
0.285 -0.13500001 -0.245 0
0.29499999 -0.13500001 -0.245 0
0.285 -0.125 -0.245 0
0.27500001 -0.115 -0.26499999 0
0.27500001 -0.105 -0.26499999 0
0.27500001 -0.085000001 -0.26499999 0
0.27000001 -0.11 -0.25 0
0.27000001 -0.090000004 -0.25 0
0.285 -0.115 -0.255 0
0.29499999 -0.115 -0.255 0
0.285 -0.105 -0.255 0
0.29499999 -0.105 -0.255 0
0.285 -0.115 -0.245 0
0.29499999 -0.115 -0.245 0
0.285 -0.105 -0.245 0
0.29499999 -0.105 -0.245 0
0.285 -0.094999999 -0.255 0
0.29499999 -0.094999999 -0.255 0
0.285 -0.085000001 -0.255 0
0.29499999 -0.085000001 -0.255 0
0.285 -0.094999999 -0.245 0
0.29499999 -0.094999999 -0.245 0
0.285 -0.085000001 -0.245 0
0.29499999 -0.085000001 -0.245 0
0.29499999 -0.045000002 -0.315 0
0.30500001 -0.045000002 -0.315 0
0.315 -0.045000002 -0.315 0
0.30500001 -0.055 -0.30500001 0
0.30500001 -0.045000002 -0.30500001 0
0.30500001 -0.045000002 -0.29499999 0
0.26499999 -0.0049999999 -0.315 0
0.27500001 -0.0049999999 -0.315 0
0.26499999 -0.0049999999 -0.30500001 0
0.27500001 -0.0049999999 -0.30500001 0
0.26499999 -0.0049999999 -0.29499999 0
0.27500001 -0.0049999999 -0.29499999 0
0.27500001 -0.015 -0.285 0
0.26499999 -0.0049999999 -0.285 0
0.27500001 -0.0049999999 -0.285 0
0.29499999 -0.035 -0.315 0
0.29499999 -0.035 -0.30500001 0
0.30500001 -0.035 -0.315 0
0.315 -0.035 -0.315 0
0.30500001 -0.035 -0.30500001 0
0.27500001 -0.064999998 -0.26499999 0
0.27500001 -0.045000002 -0.26499999 0
0.27000001 -0.07 -0.25 0
0.255 -0.055 -0.245 0
0.26499999 -0.055 -0.255 0
0.27500001 -0.055 -0.255 0
0.26499999 -0.045000002 -0.255 0
0.27500001 -0.045000002 -0.255 0
0.26499999 -0.055 -0.245 0
0.27500001 -0.055 -0.245 0
0.26499999 -0.045000002 -0.245 0
0.27500001 -0.045000002 -0.245 0
0.30500001 -0.064999998 -0.26499999 0
0.315 -0.064999998 -0.26499999 0
0.315 -0.045000002 -0.27500001 0
0.30500001 -0.055 -0.26499999 0
0.315 -0.055 -0.26499999 0
0.30500001 -0.045000002 -0.26499999 0
0.315 -0.045000002 -0.26499999 0
0.285 -0.075000003 -0.255 0
0.29499999 -0.075000003 -0.255 0
0.285 -0.064999998 -0.255 0
0.285 -0.075000003 -0.245 0
0.29499999 -0.075000003 -0.245 0
0.285 -0.064999998 -0.245 0
0.29499999 -0.064999998 -0.245 0
0.30500001 -0.064999998 -0.255 0
0.315 -0.064999998 -0.255 0
0.30500001 -0.064999998 -0.245 0
0.315 -0.064999998 -0.245 0
0.285 -0.055 -0.255 0
0.29499999 -0.055 -0.255 0
0.285 -0.045000002 -0.255 0
0.29499999 -0.045000002 -0.255 0
0.285 -0.055 -0.245 0
0.29499999 -0.055 -0.245 0
0.285 -0.045000002 -0.245 0
0.29499999 -0.045000002 -0.245 0
0.31 -0.050000001 -0.25 0
0.27500001 -0.025 -0.27500001 0
0.27500001 -0.035 -0.26499999 0
0.26499999 -0.025 -0.26499999 0
0.27500001 -0.025 -0.26499999 0
0.27000001 -0.0099999998 -0.27000001 0
0.27000001 -0.029999999 -0.25 0
0.27000001 -0.0099999998 -0.25 0
0.30500001 -0.035 -0.26499999 0
0.315 -0.035 -0.26499999 0
0.285 -0.0049999999 -0.26499999 0
0.285 -0.035 -0.255 0
0.29499999 -0.035 -0.255 0
0.285 -0.035 -0.245 0
0.29499999 -0.035 -0.245 0
0.30500001 -0.035 -0.255 0
0.315 -0.035 -0.255 0
0.30500001 -0.035 -0.245 0
0.315 -0.035 -0.245 0
0.30500001 -0.025 -0.245 0
0.285 -0.0049999999 -0.255 0
0.26499999 -0.155 -0.235 0
0.27500001 -0.155 -0.235 0
0.27500001 -0.145 -0.235 0
0.26499999 -0.13500001 -0.235 0
0.27500001 -0.13500001 -0.235 0
0.27500001 -0.125 -0.235 0
0.285 -0.155 -0.235 0
0.285 -0.145 -0.235 0
0.285 -0.13500001 -0.235 0
0.285 -0.125 -0.235 0
0.26499999 -0.115 -0.235 0
0.27500001 -0.115 -0.235 0
0.26499999 -0.105 -0.235 0
0.27500001 -0.105 -0.235 0
0.26499999 -0.094999999 -0.235 0
0.27500001 -0.094999999 -0.235 0
0.26499999 -0.085000001 -0.235 0
0.27500001 -0.085000001 -0.235 0
0.285 -0.115 -0.235 0
0.285 -0.105 -0.235 0
0.285 -0.094999999 -0.235 0
0.285 -0.085000001 -0.235 0
0.26499999 -0.075000003 -0.235 0
0.27500001 -0.075000003 -0.235 0
0.26499999 -0.064999998 -0.235 0
0.27500001 -0.064999998 -0.235 0
0.26499999 -0.055 -0.235 0
0.27500001 -0.055 -0.235 0
0.26499999 -0.045000002 -0.235 0
0.27500001 -0.045000002 -0.235 0
0.285 -0.075000003 -0.235 0
0.285 -0.064999998 -0.235 0
0.30500001 -0.064999998 -0.235 0
0.315 -0.064999998 -0.235 0
0.29499999 -0.045000002 -0.22499999 0
0.30500001 -0.055 -0.235 0
0.315 -0.055 -0.235 0
0.30500001 -0.045000002 -0.235 0
0.315 -0.045000002 -0.235 0
0.30500001 -0.055 -0.22499999 0
0.315 -0.055 -0.22499999 0
0.30500001 -0.045000002 -0.22499999 0
0.315 -0.045000002 -0.22499999 0
0.29499999 -0.055 -0.215 0
0.30500001 -0.055 -0.215 0
0.315 -0.055 -0.215 0
0.30500001 -0.045000002 -0.215 0
0.315 -0.045000002 -0.215 0
0.30500001 -0.045000002 -0.205 0
0.315 -0.045000002 -0.205 0
0.26499999 -0.035 -0.235 0
0.27500001 -0.035 -0.235 0
0.26499999 -0.025 -0.235 0
0.27500001 -0.025 -0.235 0
0.26499999 -0.025 -0.22499999 0
0.27500001 -0.025 -0.22499999 0
0.27000001 -0.0099999998 -0.23 0
0.26499999 -0.025 -0.215 0
0.27500001 -0.025 -0.215 0
0.26499999 -0.015 -0.215 0
0.27500001 -0.015 -0.215 0
0.26499999 -0.0049999999 -0.215 0
0.27500001 -0.0049999999 -0.215 0
0.27500001 -0.0049999999 -0.205 0
0.29499999 -0.035 -0.235 0
0.285 -0.025 -0.235 0
0.29499999 -0.025 -0.235 0
0.285 -0.025 -0.22499999 0
0.29499999 -0.025 -0.22499999 0
0.31 -0.029999999 -0.23 0
0.29499999 -0.015 -0.235 0
0.29499999 -0.0049999999 -0.235 0
0.285 -0.015 -0.22499999 0
0.29499999 -0.015 -0.22499999 0
0.285 -0.0049999999 -0.22499999 0
0.29499999 -0.0049999999 -0.22499999 0
0.30500001 -0.015 -0.235 0
0.315 -0.015 -0.235 0
0.30500001 -0.015 -0.22499999 0
0.315 -0.015 -0.22499999 0
0.30500001 -0.0049999999 -0.22499999 0
0.315 -0.0049999999 -0.22499999 0
0.29499999 -0.035 -0.215 0
0.29499999 -0.025 -0.215 0
0.29499999 -0.035 -0.205 0
0.31 -0.029999999 -0.20999999 0
0.285 -0.015 -0.215 0
0.29499999 -0.015 -0.215 0
0.285 -0.0049999999 -0.215 0
0.29499999 -0.0049999999 -0.215 0
0.29499999 -0.015 -0.205 0
0.285 -0.0049999999 -0.205 0
0.30500001 -0.015 -0.215 0
0.315 -0.015 -0.215 0
0.30500001 -0.0049999999 -0.215 0
0.315 -0.0049999999 -0.215 0
0.30500001 -0.015 -0.205 0
0.315 -0.015 -0.205 0
0.30500001 -0.0049999999 -0.205 0
0.315 -0.0049999999 -0.205 0
0.30500001 -0.045000002 -0.19499999 0
0.315 -0.045000002 -0.19499999 0
0.29499999 -0.035 -0.19499999 0
0.29499999 -0.025 -0.19499999 0
0.29499999 -0.025 -0.185 0
0.30500001 -0.035 -0.19499999 0
0.315 -0.035 -0.19499999 0
0.30500001 -0.025 -0.19499999 0
0.315 -0.025 -0.19499999 0
0.30500001 -0.025 -0.185 0
0.315 -0.025 -0.185 0
0.29499999 -0.015 -0.19499999 0
0.29499999 -0.0049999999 -0.185 0
0.31 -0.0099999998 -0.19 0
0.29499999 -0.0049999999 -0.175 0
0.315 -0.0049999999 -0.175 0
0.26499999 -0.19499999 -0.155 0
0.27500001 -0.19499999 -0.155 0
0.26499999 -0.185 -0.155 0
0.27500001 -0.185 -0.155 0
0.26499999 -0.19499999 -0.145 0
0.27500001 -0.19499999 -0.145 0
0.26499999 -0.185 -0.145 0
0.27500001 -0.185 -0.145 0
0.26499999 -0.175 -0.155 0
0.27500001 -0.175 -0.155 0
0.26499999 -0.16500001 -0.155 0
0.27500001 -0.16500001 -0.155 0
0.26499999 -0.175 -0.145 0
0.27500001 -0.175 -0.145 0
0.26499999 -0.16500001 -0.145 0
0.27500001 -0.16500001 -0.145 0
0.26499999 -0.185 -0.13500001 0
0.27500001 -0.185 -0.13500001 0
0.27500001 -0.185 -0.125 0
0.255 -0.175 -0.13500001 0
0.255 -0.16500001 -0.13500001 0
0.255 -0.175 -0.125 0
0.27000001 -0.17 -0.13 0
0.285 -0.175 -0.155 0
0.285 -0.16500001 -0.155 0
0.285 -0.185 -0.13500001 0
0.285 -0.185 -0.125 0
0.285 -0.175 -0.125 0
0.26499999 -0.175 -0.115 0
0.27500001 -0.175 -0.115 0
0.26499999 -0.16500001 -0.115 0
0.27500001 -0.16500001 -0.115 0
0.26499999 -0.16500001 -0.105 0
0.27500001 -0.16500001 -0.105 0
0.27500001 -0.155 -0.145 0
0.26499999 -0.155 -0.13500001 0
0.27500001 -0.155 -0.13500001 0
0.26499999 -0.155 -0.125 0
0.27500001 -0.155 -0.125 0
0.26499999 -0.145 -0.125 0
0.27500001 -0.145 -0.125 0
0.285 -0.155 -0.13500001 0
0.255 -0.155 -0.105 0
0.255 -0.145 -0.105 0
0.27000001 -0.15000001 -0.11 0
0.255 -0.13500001 -0.105 0
0.26499999 -0.13500001 -0.115 0
0.27500001 -0.13500001 -0.115 0
0.26499999 -0.13500001 -0.105 0
0.27500001 -0.13500001 -0.105 0
0.26499999 -0.125 -0.105 0
0.27500001 -0.125 -0.105 0
0.255 -0.145 -0.094999999 0
0.26499999 -0.155 -0.094999999 0
0.27500001 -0.155 -0.094999999 0
0.26499999 -0.145 -0.094999999 0
0.27500001 -0.145 -0.094999999 0
0.26499999 -0.145 -0.085000001 0
0.27500001 -0.145 -0.085000001 0
0.255 -0.13500001 -0.094999999 0
0.255 -0.13500001 -0.085000001 0
0.255 -0.125 -0.085000001 0
0.27000001 -0.13 -0.090000004 0
0.285 -0.155 -0.105 0
0.285 -0.13500001 -0.105 0
0.285 -0.125 -0.105 0
0.285 -0.145 -0.094999999 0
0.285 -0.145 -0.085000001 0
0.285 -0.13500001 -0.085000001 0
0.26499999 -0.115 -0.094999999 0
0.27500001 -0.115 -0.094999999 0
0.26499999 -0.115 -0.085000001 0
0.27500001 -0.115 -0.085000001 0
0.26499999 -0.105 -0.085000001 0
0.27500001 -0.105 -0.085000001 0
0.27500001 -0.094999999 -0.085000001 0
0.285 -0.115 -0.094999999 0
0.285 -0.105 -0.085000001 0
0.255 -0.125 -0.075000003 0
0.26499999 -0.13500001 -0.075000003 0
0.27500001 -0.13500001 -0.075000003 0
0.26499999 -0.125 -0.075000003 0
0.27500001 -0.125 -0.075000003 0
0.27500001 -0.125 -0.064999998 0
0.285 -0.13500001 -0.075000003 0
0.285 -0.125 -0.075000003 0
0.285 -0.125 -0.064999998 0
0.255 -0.115 -0.075000003 0
0.255 -0.105 -0.075000003 0
0.255 -0.105 -0.064999998 0
0.27000001 -0.11 -0.07 0
0.255 -0.094999999 -0.075000003 0
0.255 -0.094999999 -0.064999998 0
0.255 -0.085000001 -0.064999998 0
0.27000001 -0.090000004 -0.07 0
0.26499999 -0.115 -0.055 0
0.27500001 -0.115 -0.055 0
0.26499999 -0.105 -0.055 0
0.27500001 -0.105 -0.055 0
0.255 -0.094999999 -0.055 0
0.255 -0.085000001 -0.055 0
0.255 -0.085000001 -0.045000002 0
0.26499999 -0.094999999 -0.055 0
0.27500001 -0.094999999 -0.055 0
0.26499999 -0.085000001 -0.055 0
0.27500001 -0.085000001 -0.055 0
0.27500001 -0.094999999 -0.045000002 0
0.26499999 -0.085000001 -0.045000002 0
0.27500001 -0.085000001 -0.045000002 0
0.285 -0.115 -0.064999998 0
0.285 -0.105 -0.064999998 0
0.285 -0.105 -0.055 0
0.285 -0.094999999 -0.055 0
0.29499999 -0.094999999 -0.055 0
0.285 -0.085000001 -0.055 0
0.285 -0.085000001 -0.045000002 0
0.27500001 -0.075000003 -0.075000003 0
0.27500001 -0.064999998 -0.075000003 0
0.26499999 -0.075000003 -0.064999998 0
0.27500001 -0.075000003 -0.064999998 0
0.26499999 -0.064999998 -0.064999998 0
0.27500001 -0.064999998 -0.064999998 0
0.26499999 -0.055 -0.064999998 0
0.27500001 -0.055 -0.064999998 0
0.27500001 -0.045000002 -0.064999998 0
0.255 -0.075000003 -0.055 0
0.255 -0.064999998 -0.055 0
0.255 -0.075000003 -0.045000002 0
0.255 -0.064999998 -0.045000002 0
0.27000001 -0.07 -0.050000001 0
0.255 -0.055 -0.055 0
0.255 -0.055 -0.045000002 0
0.255 -0.045000002 -0.045000002 0
0.27000001 -0.050000001 -0.050000001 0
0.285 -0.064999998 -0.075000003 0
0.285 -0.055 -0.064999998 0
0.285 -0.045000002 -0.064999998 0
0.285 -0.075000003 -0.055 0
0.285 -0.064999998 -0.055 0
0.285 -0.075000003 -0.045000002 0
0.285 -0.064999998 -0.045000002 0
0.29499999 -0.064999998 -0.045000002 0
0.285 -0.055 -0.045000002 0
0.29499999 -0.055 -0.045000002 0
0.285 -0.045000002 -0.045000002 0
0.27500001 -0.035 -0.064999998 0
0.255 -0.035 -0.045000002 0
0.255 -0.025 -0.045000002 0
0.27000001 -0.029999999 -0.050000001 0
0.255 -0.015 -0.045000002 0
0.255 -0.0049999999 -0.045000002 0
0.27000001 -0.0099999998 -0.050000001 0
0.285 -0.035 -0.064999998 0
0.285 -0.035 -0.045000002 0
0.29499999 -0.035 -0.045000002 0
0.285 -0.025 -0.045000002 0
0.285 -0.015 -0.055 0
0.285 -0.0049999999 -0.055 0
0.285 -0.015 -0.045000002 0
0.285 -0.0049999999 -0.045000002 0
0.255 -0.064999998 -0.035 0
0.26499999 -0.075000003 -0.035 0
0.26499999 -0.064999998 -0.035 0
0.27500001 -0.064999998 -0.035 0
0.255 -0.055 -0.035 0
0.255 -0.045000002 -0.035 0
0.26499999 -0.055 -0.035 0
0.27500001 -0.055 -0.035 0
0.26499999 -0.045000002 -0.035 0
0.27500001 -0.045000002 -0.035 0
0.285 -0.064999998 -0.035 0
0.285 -0.055 -0.035 0
0.285 -0.045000002 -0.035 0
0.255 -0.035 -0.035 0
0.255 -0.025 -0.035 0
0.255 -0.025 -0.025 0
0.26499999 -0.035 -0.035 0
0.27500001 -0.035 -0.035 0
0.26499999 -0.025 -0.035 0
0.27500001 -0.025 -0.035 0
0.27500001 -0.035 -0.025 0
0.26499999 -0.025 -0.025 0
0.27500001 -0.025 -0.025 0
0.255 -0.015 -0.035 0
0.255 -0.0049999999 -0.035 0
0.255 -0.015 -0.025 0
0.255 -0.0049999999 -0.025 0
0.27000001 -0.0099999998 -0.029999999 0
0.285 -0.035 -0.035 0
0.29499999 -0.035 -0.035 0
0.285 -0.025 -0.035 0
0.29499999 -0.025 -0.035 0
0.285 -0.015 -0.035 0
0.29499999 -0.015 -0.035 0
0.285 -0.0049999999 -0.035 0
0.29499999 -0.0049999999 -0.035 0
0.33500001 -0.064999998 -0.245 0
0.32499999 -0.064999998 -0.235 0
0.33500001 -0.064999998 -0.235 0
0.32499999 -0.055 -0.235 0
0.33500001 -0.055 -0.235 0
0.32499999 -0.055 -0.22499999 0
0.33500001 -0.055 -0.22499999 0
0.32499999 -0.055 -0.215 0
0.33500001 -0.055 -0.215 0
0.32499999 -0.045000002 -0.215 0
0.33500001 -0.045000002 -0.215 0
0.33500001 -0.055 -0.205 0
0.32499999 -0.045000002 -0.205 0
0.33500001 -0.045000002 -0.205 0
0.32499999 -0.035 -0.205 0
0.33500001 -0.035 -0.205 0
0.32499999 -0.035 -0.19499999 0
0.33500001 -0.035 -0.19499999 0
0.32499999 -0.025 -0.19499999 0
0.33500001 -0.025 -0.19499999 0
0.32499999 -0.035 -0.185 0
0.33500001 -0.035 -0.185 0
0.32499999 -0.025 -0.185 0
0.33500001 -0.025 -0.185 0
0.33000001 -0.0099999998 -0.19 0
0.33500001 -0.015 -0.175 0
0.32499999 -0.0049999999 -0.175 0
0.33500001 -0.0049999999 -0.175 0
0.30500001 0.035 -0.565 0
0.315 0.035 -0.565 0
0.30500001 0.055 -0.58499998 0
0.315 0.055 -0.58499998 0
0.30500001 0.045000002 -0.57499999 0
0.30500001 0.045000002 -0.565 0
0.30500001 0.055 -0.565 0
0.30500001 0.015 -0.55500001 0
0.30500001 0.015 -0.54500002 0
0.30500001 0.025 -0.55500001 0
0.30500001 0.035 -0.55500001 0
0.30500001 0.025 -0.54500002 0
0.30500001 0.035 -0.54500002 0
0.30500001 0.045000002 -0.55500001 0
0.30500001 0.055 -0.55500001 0
0.30500001 0.045000002 -0.54500002 0
0.30500001 0.0049999999 -0.48500001 0
0.315 0.0049999999 -0.48500001 0
0.30500001 0.015 -0.48500001 0
0.315 0.015 -0.48500001 0
0.30500001 0.025 -0.48500001 0
0.315 0.025 -0.48500001 0
0.26499999 0.0049999999 -0.465 0
0.26499999 0.015 -0.465 0
0.26499999 0.025 -0.465 0
0.26499999 0.035 -0.465 0
0.26499999 0.0049999999 -0.45500001 0
0.27500001 0.0049999999 -0.45500001 0
0.26499999 0.015 -0.45500001 0
0.27500001 0.015 -0.45500001 0
0.26499999 0.0049999999 -0.44499999 0
0.27500001 0.0049999999 -0.44499999 0
0.26499999 0.015 -0.44499999 0
0.27500001 0.015 -0.44499999 0
0.26499999 0.025 -0.45500001 0
0.27500001 0.025 -0.45500001 0
0.26499999 0.035 -0.45500001 0
0.27500001 0.035 -0.45500001 0
0.26499999 0.025 -0.44499999 0
0.27500001 0.025 -0.44499999 0
0.26499999 0.035 -0.44499999 0
0.27500001 0.035 -0.44499999 0
0.30500001 0.0049999999 -0.47499999 0
0.30500001 0.015 -0.47499999 0
0.30500001 0.0049999999 -0.465 0
0.315 0.0049999999 -0.465 0
0.30500001 0.015 -0.465 0
0.315 0.015 -0.465 0
0.30500001 0.025 -0.47499999 0
0.315 0.025 -0.47499999 0
0.30500001 0.035 -0.47499999 0
0.30500001 0.025 -0.465 0
0.315 0.025 -0.465 0
0.30500001 0.035 -0.465 0
0.315 0.035 -0.465 0
0.285 0.0049999999 -0.45500001 0
0.285 0.015 -0.45500001 0
0.285 0.0049999999 -0.44499999 0
0.285 0.015 -0.44499999 0
0.30500001 0.0049999999 -0.45500001 0
0.30500001 0.015 -0.45500001 0
0.315 0.015 -0.45500001 0
0.30500001 0.0049999999 -0.44499999 0
0.30500001 0.015 -0.44499999 0
0.315 0.015 -0.44499999 0
0.285 0.025 -0.45500001 0
0.29499999 0.025 -0.45500001 0
0.285 0.035 -0.45500001 0
0.285 0.025 -0.44499999 0
0.285 0.035 -0.44499999 0
0.30500001 0.025 -0.45500001 0
0.315 0.025 -0.45500001 0
0.30500001 0.035 -0.45500001 0
0.315 0.035 -0.45500001 0
0.30500001 0.025 -0.44499999 0
0.315 0.025 -0.44499999 0
0.30500001 0.035 -0.44499999 0
0.315 0.035 -0.44499999 0
0.26499999 0.045000002 -0.45500001 0
0.26499999 0.055 -0.45500001 0
0.27500001 0.055 -0.45500001 0
0.26499999 0.045000002 -0.44499999 0
0.27500001 0.045000002 -0.44499999 0
0.26499999 0.055 -0.44499999 0
0.27500001 0.055 -0.44499999 0
0.26499999 0.064999998 -0.45500001 0
0.27500001 0.064999998 -0.45500001 0
0.27500001 0.075000003 -0.45500001 0
0.26499999 0.064999998 -0.44499999 0
0.27500001 0.064999998 -0.44499999 0
0.26499999 0.075000003 -0.44499999 0
0.27500001 0.075000003 -0.44499999 0
0.30500001 0.045000002 -0.47499999 0
0.30500001 0.045000002 -0.465 0
0.30500001 0.055 -0.465 0
0.285 0.045000002 -0.44499999 0
0.285 0.055 -0.44499999 0
0.30500001 0.045000002 -0.45500001 0
0.315 0.055 -0.45500001 0
0.315 0.045000002 -0.44499999 0
0.30500001 0.055 -0.44499999 0
0.285 0.064999998 -0.44499999 0
0.29499999 0.064999998 -0.44499999 0
0.285 0.075000003 -0.44499999 0
0.255 0.015 -0.435 0
0.26499999 0.0049999999 -0.435 0
0.27500001 0.0049999999 -0.435 0
0.26499999 0.015 -0.435 0
0.27500001 0.015 -0.435 0
0.26499999 0.0049999999 -0.42500001 0
0.27500001 0.0049999999 -0.42500001 0
0.26499999 0.025 -0.435 0
0.27500001 0.025 -0.435 0
0.26499999 0.035 -0.435 0
0.27500001 0.035 -0.435 0
0.26499999 0.035 -0.42500001 0
0.26499999 0.0049999999 -0.41499999 0
0.27500001 0.0049999999 -0.41499999 0
0.27500001 0.0049999999 -0.405 0
0.30500001 0.0049999999 -0.435 0
0.30500001 0.015 -0.435 0
0.30500001 0.0049999999 -0.42500001 0
0.30500001 0.015 -0.42500001 0
0.315 0.015 -0.42500001 0
0.285 0.035 -0.435 0
0.30500001 0.025 -0.435 0
0.30500001 0.035 -0.435 0
0.315 0.035 -0.435 0
0.30500001 0.025 -0.42500001 0
0.315 0.025 -0.42500001 0
0.30500001 0.035 -0.42500001 0
0.315 0.035 -0.42500001 0
0.30500001 0.0049999999 -0.41499999 0
0.30500001 0.015 -0.41499999 0
0.30500001 0.0049999999 -0.405 0
0.315 0.0049999999 -0.405 0
0.30500001 0.015 -0.405 0
0.29499999 0.035 -0.41499999 0
0.30500001 0.025 -0.41499999 0
0.315 0.025 -0.41499999 0
0.30500001 0.035 -0.41499999 0
0.315 0.035 -0.41499999 0
0.30500001 0.025 -0.405 0
0.315 0.025 -0.405 0
0.30500001 0.035 -0.405 0
0.315 0.035 -0.405 0
0.27500001 0.045000002 -0.435 0
0.26499999 0.055 -0.435 0
0.27500001 0.055 -0.435 0
0.27500001 0.045000002 -0.42500001 0
0.26499999 0.064999998 -0.435 0
0.27500001 0.064999998 -0.435 0
0.26499999 0.075000003 -0.435 0
0.27500001 0.075000003 -0.435 0
0.27500001 0.064999998 -0.42500001 0
0.26499999 0.075000003 -0.42500001 0
0.27500001 0.075000003 -0.42500001 0
0.285 0.045000002 -0.435 0
0.285 0.055 -0.435 0
0.30500001 0.045000002 -0.435 0
0.315 0.045000002 -0.435 0
0.30500001 0.045000002 -0.42500001 0
0.285 0.064999998 -0.435 0
0.285 0.075000003 -0.435 0
0.285 0.064999998 -0.42500001 0
0.285 0.075000003 -0.42500001 0
0.30500001 0.045000002 -0.41499999 0
0.315 0.045000002 -0.41499999 0
0.30500001 0.055 -0.41499999 0
0.30500001 0.045000002 -0.405 0
0.30500001 0.055 -0.405 0
0.315 0.055 -0.405 0
0.27500001 0.085000001 -0.44499999 0
0.26499999 0.085000001 -0.435 0
0.27500001 0.085000001 -0.435 0
0.26499999 0.094999999 -0.435 0
0.27500001 0.094999999 -0.435 0
0.26499999 0.085000001 -0.42500001 0
0.27500001 0.085000001 -0.42500001 0
0.26499999 0.094999999 -0.42500001 0
0.27500001 0.094999999 -0.42500001 0
0.26499999 0.105 -0.435 0
0.27500001 0.105 -0.435 0
0.27500001 0.115 -0.435 0
0.26499999 0.105 -0.42500001 0
0.27500001 0.105 -0.42500001 0
0.26499999 0.115 -0.42500001 0
0.27500001 0.115 -0.42500001 0
0.26499999 0.085000001 -0.41499999 0
0.27500001 0.085000001 -0.41499999 0
0.26499999 0.094999999 -0.41499999 0
0.27500001 0.094999999 -0.41499999 0
0.27500001 0.105 -0.41499999 0
0.26499999 0.115 -0.41499999 0
0.27500001 0.115 -0.41499999 0
0.26499999 0.105 -0.405 0
0.27500001 0.105 -0.405 0
0.26499999 0.115 -0.405 0
0.27500001 0.115 -0.405 0
0.285 0.085000001 -0.435 0
0.29499999 0.085000001 -0.435 0
0.285 0.094999999 -0.435 0
0.29499999 0.094999999 -0.435 0
0.285 0.085000001 -0.42500001 0
0.285 0.094999999 -0.42500001 0
0.285 0.085000001 -0.41499999 0
0.285 0.094999999 -0.41499999 0
0.285 0.105 -0.41499999 0
0.285 0.115 -0.41499999 0
0.285 0.105 -0.405 0
0.285 0.115 -0.405 0
0.26499999 0.125 -0.42500001 0
0.26499999 0.125 -0.41499999 0
0.27500001 0.125 -0.41499999 0
0.26499999 0.13500001 -0.41499999 0
0.27500001 0.13500001 -0.41499999 0
0.26499999 0.125 -0.405 0
0.27500001 0.125 -0.405 0
0.26499999 0.13500001 -0.405 0
0.27500001 0.13500001 -0.405 0
0.26499999 0.145 -0.405 0
0.26499999 0.155 -0.405 0
0.27500001 0.155 -0.405 0
0.29499999 0.125 -0.41499999 0
0.285 0.125 -0.405 0
0.29499999 0.125 -0.405 0
0.285 0.13500001 -0.405 0
0.29499999 0.13500001 -0.405 0
0.26499999 0.0049999999 -0.39500001 0
0.26499999 0.0049999999 -0.38499999 0
0.27500001 0.0049999999 -0.38499999 0
0.26499999 0.0049999999 -0.375 0
0.27500001 0.0049999999 -0.375 0
0.26499999 0.0049999999 -0.36500001 0
0.27500001 0.0049999999 -0.36500001 0
0.30500001 0.0049999999 -0.39500001 0
0.30500001 0.015 -0.39500001 0
0.315 0.015 -0.39500001 0
0.30500001 0.0049999999 -0.38499999 0
0.30500001 0.015 -0.38499999 0
0.315 0.015 -0.38499999 0
0.30500001 0.025 -0.39500001 0
0.315 0.025 -0.39500001 0
0.30500001 0.035 -0.39500001 0
0.315 0.035 -0.39500001 0
0.30500001 0.025 -0.38499999 0
0.315 0.025 -0.38499999 0
0.30500001 0.035 -0.38499999 0
0.315 0.035 -0.38499999 0
0.30500001 0.0049999999 -0.375 0
0.30500001 0.015 -0.375 0
0.315 0.015 -0.375 0
0.30500001 0.0049999999 -0.36500001 0
0.315 0.0049999999 -0.36500001 0
0.30500001 0.015 -0.36500001 0
0.315 0.015 -0.36500001 0
0.30500001 0.025 -0.375 0
0.315 0.025 -0.375 0
0.30500001 0.035 -0.375 0
0.315 0.035 -0.375 0
0.30500001 0.025 -0.36500001 0
0.315 0.025 -0.36500001 0
0.30500001 0.035 -0.36500001 0
0.315 0.035 -0.36500001 0
0.30500001 0.045000002 -0.39500001 0
0.315 0.045000002 -0.39500001 0
0.30500001 0.055 -0.39500001 0
0.30500001 0.045000002 -0.38499999 0
0.315 0.045000002 -0.38499999 0
0.30500001 0.055 -0.38499999 0
0.30500001 0.045000002 -0.375 0
0.315 0.045000002 -0.375 0
0.30500001 0.055 -0.375 0
0.315 0.055 -0.375 0
0.30500001 0.045000002 -0.36500001 0
0.315 0.045000002 -0.36500001 0
0.30500001 0.055 -0.36500001 0
0.315 0.055 -0.36500001 0
0.26499999 0.0049999999 -0.35499999 0
0.27500001 0.0049999999 -0.35499999 0
0.26499999 0.0049999999 -0.345 0
0.27500001 0.0049999999 -0.345 0
0.26499999 0.0049999999 -0.33500001 0
0.27500001 0.0049999999 -0.33500001 0
0.26499999 0.0049999999 -0.32499999 0
0.27500001 0.0049999999 -0.32499999 0
0.30500001 0.0049999999 -0.35499999 0
0.30500001 0.015 -0.35499999 0
0.315 0.015 -0.35499999 0
0.30500001 0.0049999999 -0.345 0
0.30500001 0.015 -0.345 0
0.315 0.015 -0.345 0
0.30500001 0.025 -0.35499999 0
0.315 0.025 -0.35499999 0
0.30500001 0.035 -0.35499999 0
0.315 0.035 -0.35499999 0
0.30500001 0.025 -0.345 0
0.315 0.025 -0.345 0
0.30500001 0.035 -0.345 0
0.315 0.035 -0.345 0
0.29499999 0.015 -0.33500001 0
0.30500001 0.0049999999 -0.33500001 0
0.30500001 0.015 -0.33500001 0
0.315 0.015 -0.33500001 0
0.30500001 0.015 -0.32499999 0
0.30500001 0.025 -0.33500001 0
0.315 0.025 -0.33500001 0
0.30500001 0.035 -0.33500001 0
0.315 0.035 -0.33500001 0
0.30500001 0.025 -0.32499999 0
0.30500001 0.035 -0.32499999 0
0.30500001 0.045000002 -0.35499999 0
0.315 0.045000002 -0.35499999 0
0.315 0.055 -0.35499999 0
0.30500001 0.045000002 -0.345 0
0.315 0.045000002 -0.345 0
0.30500001 0.055 -0.345 0
0.315 0.055 -0.345 0
0.30500001 0.045000002 -0.33500001 0
0.315 0.045000002 -0.33500001 0
0.30500001 0.055 -0.33500001 0
0.315 0.055 -0.33500001 0
0.30500001 0.045000002 -0.32499999 0
0.315 0.045000002 -0.32499999 0
0.30500001 0.055 -0.32499999 0
0.27500001 0.115 -0.39500001 0
0.26499999 0.125 -0.39500001 0
0.27500001 0.125 -0.39500001 0
0.26499999 0.13500001 -0.39500001 0
0.27500001 0.13500001 -0.39500001 0
0.26499999 0.125 -0.38499999 0
0.27500001 0.125 -0.38499999 0
0.26499999 0.13500001 -0.38499999 0
0.27500001 0.13500001 -0.38499999 0
0.26499999 0.145 -0.39500001 0
0.27500001 0.145 -0.39500001 0
0.26499999 0.155 -0.39500001 0
0.26499999 0.145 -0.38499999 0
0.27500001 0.145 -0.38499999 0
0.26499999 0.155 -0.38499999 0
0.27500001 0.155 -0.38499999 0
0.26499999 0.13500001 -0.375 0
0.26499999 0.145 -0.375 0
0.27500001 0.145 -0.375 0
0.26499999 0.155 -0.375 0
0.27500001 0.155 -0.375 0
0.26499999 0.155 -0.36500001 0
0.27500001 0.155 -0.36500001 0
0.285 0.125 -0.39500001 0
0.285 0.13500001 -0.39500001 0
0.285 0.13500001 -0.38499999 0
0.285 0.145 -0.39500001 0
0.29499999 0.145 -0.39500001 0
0.285 0.145 -0.38499999 0
0.285 0.145 -0.375 0
0.285 0.155 -0.375 0
0.29499999 0.155 -0.375 0
0.285 0.155 -0.36500001 0
0.26499999 0.155 -0.35499999 0
0.27500001 0.155 -0.35499999 0
0.26499999 0.16500001 -0.38499999 0
0.27500001 0.16500001 -0.38499999 0
0.26499999 0.16500001 -0.375 0
0.27500001 0.16500001 -0.375 0
0.26499999 0.175 -0.375 0
0.27500001 0.175 -0.375 0
0.26499999 0.16500001 -0.36500001 0
0.27500001 0.16500001 -0.36500001 0
0.26499999 0.175 -0.36500001 0
0.27500001 0.175 -0.36500001 0
0.26499999 0.185 -0.36500001 0
0.285 0.16500001 -0.375 0
0.29499999 0.16500001 -0.375 0
0.285 0.16500001 -0.36500001 0
0.26499999 0.16500001 -0.35499999 0
0.27500001 0.16500001 -0.35499999 0
0.26499999 0.175 -0.35499999 0
0.27500001 0.175 -0.35499999 0
0.26499999 0.16500001 -0.345 0
0.27500001 0.16500001 -0.345 0
0.26499999 0.175 -0.345 0
0.27500001 0.175 -0.345 0
0.26499999 0.185 -0.35499999 0
0.26499999 0.185 -0.345 0
0.27500001 0.185 -0.345 0
0.26499999 0.19499999 -0.345 0
0.26499999 0.16500001 -0.33500001 0
0.26499999 0.175 -0.33500001 0
0.27500001 0.175 -0.33500001 0
0.26499999 0.175 -0.32499999 0
0.27500001 0.175 -0.32499999 0
0.26499999 0.185 -0.33500001 0
0.27500001 0.185 -0.33500001 0
0.26499999 0.19499999 -0.33500001 0
0.27500001 0.19499999 -0.33500001 0
0.26499999 0.185 -0.32499999 0
0.27500001 0.185 -0.32499999 0
0.26499999 0.19499999 -0.32499999 0
0.27500001 0.19499999 -0.32499999 0
0.285 0.16500001 -0.35499999 0
0.285 0.175 -0.35499999 0
0.285 0.16500001 -0.345 0
0.285 0.175 -0.345 0
0.285 0.175 -0.33500001 0
0.285 0.175 -0.32499999 0
0.285 0.185 -0.33500001 0
0.285 0.185 -0.32499999 0
0.29499999 0.185 -0.32499999 0
0.26499999 0.205 -0.32499999 0
0.27500001 0.205 -0.32499999 0
0.26499999 0.0049999999 -0.315 0
0.27500001 0.0049999999 -0.315 0
0.26499999 0.0049999999 -0.30500001 0
0.27500001 0.0049999999 -0.30500001 0
0.26499999 0.0049999999 -0.29499999 0
0.27500001 0.0049999999 -0.29499999 0
0.26499999 0.0049999999 -0.285 0
0.27500001 0.0049999999 -0.285 0
0.27500001 0.015 -0.285 0
0.29499999 0.035 -0.30500001 0
0.30500001 0.035 -0.315 0
0.315 0.035 -0.315 0
0.30500001 0.035 -0.30500001 0
0.29499999 0.0049999999 -0.285 0
0.30500001 0.045000002 -0.315 0
0.315 0.045000002 -0.315 0
0.30500001 0.055 -0.315 0
0.30500001 0.045000002 -0.30500001 0
0.30500001 0.055 -0.30500001 0
0.27000001 0.0099999998 -0.27000001 0
0.26499999 0.025 -0.27500001 0
0.27500001 0.025 -0.27500001 0
0.26499999 0.025 -0.26499999 0
0.27500001 0.025 -0.26499999 0
0.27500001 0.035 -0.26499999 0
0.26499999 0.0049999999 -0.255 0
0.27500001 0.0049999999 -0.255 0
0.26499999 0.015 -0.255 0
0.27500001 0.015 -0.255 0
0.26499999 0.0049999999 -0.245 0
0.27500001 0.0049999999 -0.245 0
0.26499999 0.015 -0.245 0
0.27500001 0.015 -0.245 0
0.26499999 0.025 -0.255 0
0.27500001 0.025 -0.255 0
0.26499999 0.035 -0.255 0
0.27500001 0.035 -0.255 0
0.26499999 0.025 -0.245 0
0.27500001 0.025 -0.245 0
0.26499999 0.035 -0.245 0
0.27500001 0.035 -0.245 0
0.285 0.0049999999 -0.26499999 0
0.30500001 0.035 -0.26499999 0
0.315 0.035 -0.26499999 0
0.285 0.0049999999 -0.255 0
0.285 0.035 -0.255 0
0.29499999 0.035 -0.255 0
0.29499999 0.025 -0.245 0
0.285 0.035 -0.245 0
0.29499999 0.035 -0.245 0
0.30500001 0.035 -0.255 0
0.315 0.035 -0.255 0
0.30500001 0.025 -0.245 0
0.315 0.025 -0.245 0
0.30500001 0.035 -0.245 0
0.315 0.035 -0.245 0
0.27500001 0.045000002 -0.26499999 0
0.27500001 0.055 -0.26499999 0
0.27000001 0.050000001 -0.25 0
0.27000001 0.07 -0.25 0
0.30500001 0.045000002 -0.26499999 0
0.315 0.045000002 -0.26499999 0
0.30500001 0.055 -0.26499999 0
0.315 0.055 -0.26499999 0
0.315 0.064999998 -0.27500001 0
0.30500001 0.064999998 -0.26499999 0
0.315 0.064999998 -0.26499999 0
0.285 0.045000002 -0.255 0
0.29499999 0.045000002 -0.255 0
0.285 0.055 -0.255 0
0.29499999 0.055 -0.255 0
0.285 0.045000002 -0.245 0
0.29499999 0.045000002 -0.245 0
0.285 0.055 -0.245 0
0.29499999 0.055 -0.245 0
0.30500001 0.045000002 -0.255 0
0.315 0.045000002 -0.255 0
0.30500001 0.055 -0.255 0
0.315 0.055 -0.255 0
0.30500001 0.045000002 -0.245 0
0.315 0.045000002 -0.245 0
0.30500001 0.055 -0.245 0
0.315 0.055 -0.245 0
0.285 0.064999998 -0.255 0
0.29499999 0.064999998 -0.255 0
0.285 0.075000003 -0.255 0
0.29499999 0.075000003 -0.255 0
0.285 0.064999998 -0.245 0
0.29499999 0.064999998 -0.245 0
0.285 0.075000003 -0.245 0
0.29499999 0.075000003 -0.245 0
0.30500001 0.064999998 -0.255 0
0.315 0.064999998 -0.255 0
0.30500001 0.064999998 -0.245 0
0.315 0.064999998 -0.245 0
0.27500001 0.094999999 -0.26499999 0
0.27500001 0.115 -0.26499999 0
0.27000001 0.090000004 -0.25 0
0.27000001 0.11 -0.25 0
0.285 0.085000001 -0.255 0
0.285 0.094999999 -0.255 0
0.29499999 0.094999999 -0.255 0
0.285 0.085000001 -0.245 0
0.285 0.094999999 -0.245 0
0.29499999 0.094999999 -0.245 0
0.29499999 0.115 -0.255 0
0.285 0.105 -0.245 0
0.285 0.115 -0.245 0
0.29499999 0.115 -0.245 0
0.27500001 0.125 -0.26499999 0
0.27500001 0.145 -0.26499999 0
0.27500001 0.155 -0.26499999 0
0.26499999 0.125 -0.255 0
0.27500001 0.125 -0.255 0
0.26499999 0.13500001 -0.255 0
0.27500001 0.13500001 -0.255 0
0.26499999 0.125 -0.245 0
0.27500001 0.125 -0.245 0
0.26499999 0.13500001 -0.245 0
0.27500001 0.13500001 -0.245 0
0.26499999 0.145 -0.255 0
0.27500001 0.145 -0.255 0
0.26499999 0.155 -0.255 0
0.27500001 0.155 -0.255 0
0.26499999 0.145 -0.245 0
0.27500001 0.145 -0.245 0
0.26499999 0.155 -0.245 0
0.27500001 0.155 -0.245 0
0.285 0.125 -0.255 0
0.29499999 0.13500001 -0.255 0
0.285 0.125 -0.245 0
0.29499999 0.125 -0.245 0
0.285 0.13500001 -0.245 0
0.285 0.145 -0.255 0
0.29499999 0.145 -0.255 0
0.285 0.155 -0.255 0
0.285 0.145 -0.245 0
0.29499999 0.145 -0.245 0
0.285 0.155 -0.245 0
0.29499999 0.155 -0.245 0
0.27000001 0.0099999998 -0.23 0
0.26499999 0.025 -0.235 0
0.27500001 0.025 -0.235 0
0.26499999 0.035 -0.235 0
0.27500001 0.035 -0.235 0
0.26499999 0.025 -0.22499999 0
0.27500001 0.025 -0.22499999 0
0.255 0.015 -0.215 0
0.26499999 0.0049999999 -0.215 0
0.27500001 0.0049999999 -0.215 0
0.26499999 0.015 -0.215 0
0.27500001 0.015 -0.215 0
0.26499999 0.0049999999 -0.205 0
0.27500001 0.025 -0.215 0
0.285 0.015 -0.235 0
0.29499999 0.015 -0.235 0
0.285 0.0049999999 -0.22499999 0
0.29499999 0.0049999999 -0.22499999 0
0.285 0.015 -0.22499999 0
0.29499999 0.015 -0.22499999 0
0.30500001 0.015 -0.235 0
0.315 0.015 -0.235 0
0.30500001 0.0049999999 -0.22499999 0
0.315 0.0049999999 -0.22499999 0
0.30500001 0.015 -0.22499999 0
0.315 0.015 -0.22499999 0
0.285 0.025 -0.235 0
0.29499999 0.025 -0.235 0
0.285 0.035 -0.235 0
0.29499999 0.035 -0.235 0
0.285 0.025 -0.22499999 0
0.29499999 0.025 -0.22499999 0
0.29499999 0.035 -0.22499999 0
0.30500001 0.025 -0.235 0
0.315 0.025 -0.235 0
0.30500001 0.035 -0.235 0
0.315 0.035 -0.235 0
0.30500001 0.025 -0.22499999 0
0.315 0.025 -0.22499999 0
0.30500001 0.035 -0.22499999 0
0.315 0.035 -0.22499999 0
0.285 0.0049999999 -0.215 0
0.29499999 0.0049999999 -0.215 0
0.285 0.015 -0.215 0
0.29499999 0.015 -0.215 0
0.285 0.0049999999 -0.205 0
0.29499999 0.0049999999 -0.205 0
0.29499999 0.015 -0.205 0
0.31 0.0099999998 -0.20999999 0
0.29499999 0.025 -0.215 0
0.29499999 0.035 -0.215 0
0.29499999 0.025 -0.205 0
0.31 0.029999999 -0.20999999 0
0.26499999 0.045000002 -0.235 0
0.27500001 0.045000002 -0.235 0
0.26499999 0.055 -0.235 0
0.27500001 0.055 -0.235 0
0.26499999 0.064999998 -0.235 0
0.27500001 0.064999998 -0.235 0
0.26499999 0.075000003 -0.235 0
0.27500001 0.075000003 -0.235 0
0.285 0.045000002 -0.235 0
0.285 0.055 -0.235 0
0.29499999 0.055 -0.22499999 0
0.31 0.050000001 -0.23 0
0.285 0.064999998 -0.235 0
0.285 0.075000003 -0.235 0
0.30500001 0.064999998 -0.235 0
0.315 0.064999998 -0.235 0
0.29499999 0.045000002 -0.215 0
0.29499999 0.055 -0.205 0
0.30500001 0.045000002 -0.215 0
0.315 0.045000002 -0.215 0
0.30500001 0.055 -0.215 0
0.315 0.055 -0.215 0
0.30500001 0.045000002 -0.205 0
0.315 0.045000002 -0.205 0
0.29499999 0.0049999999 -0.19499999 0
0.29499999 0.015 -0.19499999 0
0.29499999 0.0049999999 -0.185 0
0.29499999 0.015 -0.185 0
0.31 0.0099999998 -0.19 0
0.29499999 0.025 -0.19499999 0
0.29499999 0.035 -0.19499999 0
0.29499999 0.025 -0.185 0
0.30500001 0.025 -0.19499999 0
0.315 0.025 -0.19499999 0
0.30500001 0.035 -0.19499999 0
0.315 0.035 -0.19499999 0
0.30500001 0.025 -0.185 0
0.315 0.025 -0.185 0
0.30500001 0.035 -0.185 0
0.315 0.015 -0.175 0
0.30500001 0.045000002 -0.19499999 0
0.315 0.045000002 -0.19499999 0
0.26499999 0.085000001 -0.235 0
0.27500001 0.085000001 -0.235 0
0.26499999 0.094999999 -0.235 0
0.27500001 0.094999999 -0.235 0
0.26499999 0.105 -0.235 0
0.27500001 0.105 -0.235 0
0.26499999 0.115 -0.235 0
0.27500001 0.115 -0.235 0
0.285 0.085000001 -0.235 0
0.285 0.094999999 -0.235 0
0.285 0.105 -0.235 0
0.285 0.115 -0.235 0
0.26499999 0.125 -0.235 0
0.27500001 0.125 -0.235 0
0.27500001 0.13500001 -0.235 0
0.26499999 0.145 -0.235 0
0.27500001 0.145 -0.235 0
0.26499999 0.155 -0.235 0
0.27500001 0.155 -0.235 0
0.285 0.145 -0.235 0
0.285 0.155 -0.235 0
0.27500001 0.175 -0.315 0
0.27500001 0.175 -0.30500001 0
0.26499999 0.185 -0.315 0
0.27500001 0.185 -0.315 0
0.26499999 0.19499999 -0.315 0
0.27500001 0.19499999 -0.315 0
0.26499999 0.185 -0.30500001 0
0.27500001 0.185 -0.30500001 0
0.26499999 0.19499999 -0.30500001 0
0.27500001 0.19499999 -0.30500001 0
0.26499999 0.185 -0.29499999 0
0.27500001 0.185 -0.29499999 0
0.26499999 0.19499999 -0.29499999 0
0.27500001 0.19499999 -0.29499999 0
0.26499999 0.185 -0.285 0
0.27500001 0.185 -0.285 0
0.26499999 0.19499999 -0.285 0
0.27500001 0.19499999 -0.285 0
0.285 0.185 -0.315 0
0.285 0.19499999 -0.315 0
0.285 0.185 -0.30500001 0
0.285 0.19499999 -0.30500001 0
0.285 0.185 -0.29499999 0
0.285 0.19499999 -0.29499999 0
0.285 0.19499999 -0.285 0
0.26499999 0.205 -0.315 0
0.27500001 0.205 -0.315 0
0.27500001 0.215 -0.315 0
0.26499999 0.205 -0.30500001 0
0.27500001 0.205 -0.30500001 0
0.26499999 0.205 -0.29499999 0
0.27500001 0.205 -0.29499999 0
0.26499999 0.205 -0.285 0
0.27500001 0.205 -0.285 0
0.26499999 0.215 -0.285 0
0.27500001 0.215 -0.285 0
0.27500001 0.16500001 -0.26499999 0
0.27500001 0.175 -0.26499999 0
0.255 0.19499999 -0.27500001 0
0.26499999 0.19499999 -0.27500001 0
0.27500001 0.19499999 -0.27500001 0
0.27500001 0.185 -0.26499999 0
0.26499999 0.19499999 -0.26499999 0
0.27500001 0.19499999 -0.26499999 0
0.26499999 0.16500001 -0.255 0
0.27500001 0.16500001 -0.255 0
0.26499999 0.175 -0.255 0
0.27500001 0.175 -0.255 0
0.26499999 0.16500001 -0.245 0
0.27500001 0.16500001 -0.245 0
0.26499999 0.175 -0.245 0
0.27500001 0.175 -0.245 0
0.26499999 0.185 -0.255 0
0.27500001 0.185 -0.255 0
0.26499999 0.19499999 -0.255 0
0.27500001 0.19499999 -0.255 0
0.26499999 0.185 -0.245 0
0.27500001 0.185 -0.245 0
0.26499999 0.19499999 -0.245 0
0.27500001 0.19499999 -0.245 0
0.285 0.19499999 -0.27500001 0
0.285 0.16500001 -0.255 0
0.285 0.175 -0.255 0
0.285 0.16500001 -0.245 0
0.285 0.175 -0.245 0
0.29499999 0.185 -0.255 0
0.285 0.19499999 -0.255 0
0.285 0.185 -0.245 0
0.29499999 0.185 -0.245 0
0.285 0.19499999 -0.245 0
0.29499999 0.19499999 -0.245 0
0.26499999 0.205 -0.27500001 0
0.27500001 0.205 -0.27500001 0
0.26499999 0.215 -0.27500001 0
0.26499999 0.205 -0.26499999 0
0.27500001 0.205 -0.26499999 0
0.26499999 0.215 -0.26499999 0
0.26499999 0.205 -0.255 0
0.27500001 0.205 -0.255 0
0.26499999 0.215 -0.255 0
0.27500001 0.215 -0.255 0
0.26499999 0.205 -0.245 0
0.27500001 0.205 -0.245 0
0.26499999 0.215 -0.245 0
0.27500001 0.215 -0.245 0
0.29499999 0.205 -0.26499999 0
0.285 0.215 -0.26499999 0
0.29499999 0.215 -0.26499999 0
0.29499999 0.205 -0.255 0
0.26499999 0.16500001 -0.235 0
0.27500001 0.16500001 -0.235 0
0.27500001 0.175 -0.235 0
0.26499999 0.185 -0.235 0
0.27500001 0.185 -0.235 0
0.26499999 0.19499999 -0.235 0
0.27500001 0.19499999 -0.235 0
0.26499999 0.185 -0.22499999 0
0.27500001 0.185 -0.22499999 0
0.26499999 0.19499999 -0.22499999 0
0.27500001 0.19499999 -0.22499999 0
0.255 0.19499999 -0.215 0
0.26499999 0.185 -0.215 0
0.27500001 0.185 -0.215 0
0.26499999 0.19499999 -0.215 0
0.27500001 0.19499999 -0.215 0
0.27500001 0.185 -0.205 0
0.26499999 0.19499999 -0.205 0
0.27500001 0.19499999 -0.205 0
0.285 0.175 -0.235 0
0.285 0.19499999 -0.235 0
0.285 0.19499999 -0.22499999 0
0.285 0.19499999 -0.215 0
0.285 0.19499999 -0.205 0
0.26499999 0.205 -0.235 0
0.27500001 0.205 -0.235 0
0.26499999 0.215 -0.235 0
0.27500001 0.215 -0.235 0
0.26499999 0.205 -0.22499999 0
0.27500001 0.205 -0.22499999 0
0.26499999 0.215 -0.22499999 0
0.26499999 0.205 -0.215 0
0.27500001 0.205 -0.215 0
0.26499999 0.215 -0.215 0
0.27500001 0.215 -0.215 0
0.26499999 0.205 -0.205 0
0.27500001 0.205 -0.205 0
0.26499999 0.215 -0.205 0
0.27500001 0.215 -0.205 0
0.26499999 0.185 -0.19499999 0
0.27500001 0.185 -0.19499999 0
0.26499999 0.19499999 -0.19499999 0
0.27500001 0.19499999 -0.19499999 0
0.26499999 0.185 -0.185 0
0.27500001 0.185 -0.185 0
0.26499999 0.19499999 -0.185 0
0.27500001 0.19499999 -0.185 0
0.26499999 0.175 -0.16500001 0
0.27500001 0.175 -0.16500001 0
0.255 0.185 -0.16500001 0
0.26499999 0.185 -0.175 0
0.27500001 0.185 -0.175 0
0.26499999 0.19499999 -0.175 0
0.27500001 0.19499999 -0.175 0
0.26499999 0.185 -0.16500001 0
0.27500001 0.185 -0.16500001 0
0.26499999 0.19499999 -0.16500001 0
0.27500001 0.19499999 -0.16500001 0
0.285 0.185 -0.19499999 0
0.285 0.185 -0.185 0
0.285 0.185 -0.175 0
0.26499999 0.205 -0.19499999 0
0.27500001 0.205 -0.19499999 0
0.27500001 0.215 -0.19499999 0
0.26499999 0.205 -0.185 0
0.27500001 0.205 -0.185 0
0.27500001 0.215 -0.185 0
0.26499999 0.205 -0.175 0
0.27500001 0.205 -0.175 0
0.26499999 0.205 -0.16500001 0
0.27500001 0.205 -0.16500001 0
0.26499999 0.155 -0.13500001 0
0.27500001 0.155 -0.13500001 0
0.26499999 0.145 -0.125 0
0.27500001 0.145 -0.125 0
0.26499999 0.155 -0.125 0
0.27500001 0.155 -0.125 0
0.285 0.155 -0.13500001 0
0.27500001 0.094999999 -0.085000001 0
0.255 0.115 -0.085000001 0
0.26499999 0.115 -0.094999999 0
0.27500001 0.115 -0.094999999 0
0.26499999 0.105 -0.085000001 0
0.27500001 0.105 -0.085000001 0
0.26499999 0.115 -0.085000001 0
0.27500001 0.115 -0.085000001 0
0.285 0.094999999 -0.085000001 0
0.285 0.115 -0.094999999 0
0.285 0.105 -0.085000001 0
0.255 0.13500001 -0.105 0
0.27500001 0.13500001 -0.115 0
0.26499999 0.125 -0.105 0
0.27500001 0.125 -0.105 0
0.26499999 0.13500001 -0.105 0
0.27500001 0.13500001 -0.105 0
0.255 0.155 -0.115 0
0.27000001 0.15000001 -0.11 0
0.255 0.13500001 -0.094999999 0
0.255 0.125 -0.085000001 0
0.255 0.13500001 -0.085000001 0
0.27000001 0.13 -0.090000004 0
0.255 0.145 -0.094999999 0
0.255 0.145 -0.085000001 0
0.26499999 0.145 -0.094999999 0
0.27500001 0.145 -0.094999999 0
0.26499999 0.155 -0.094999999 0
0.27500001 0.155 -0.094999999 0
0.26499999 0.145 -0.085000001 0
0.27500001 0.145 -0.085000001 0
0.285 0.125 -0.105 0
0.285 0.125 -0.085000001 0
0.285 0.145 -0.094999999 0
0.285 0.155 -0.094999999 0
0.285 0.145 -0.085000001 0
0.285 0.155 -0.085000001 0
0.27500001 0.035 -0.064999998 0
0.255 0.0049999999 -0.045000002 0
0.255 0.015 -0.045000002 0
0.27000001 0.0099999998 -0.050000001 0
0.255 0.025 -0.045000002 0
0.255 0.035 -0.045000002 0
0.27000001 0.029999999 -0.050000001 0
0.285 0.025 -0.064999998 0
0.285 0.035 -0.064999998 0
0.285 0.015 -0.055 0
0.285 0.015 -0.045000002 0
0.285 0.025 -0.055 0
0.285 0.025 -0.045000002 0
0.285 0.035 -0.045000002 0
0.27500001 0.045000002 -0.064999998 0
0.27500001 0.055 -0.064999998 0
0.255 0.075000003 -0.064999998 0
0.27500001 0.075000003 -0.075000003 0
0.26499999 0.064999998 -0.064999998 0
0.27500001 0.064999998 -0.064999998 0
0.26499999 0.075000003 -0.064999998 0
0.27500001 0.075000003 -0.064999998 0
0.255 0.055 -0.055 0
0.255 0.045000002 -0.045000002 0
0.255 0.055 -0.045000002 0
0.27000001 0.050000001 -0.050000001 0
0.255 0.064999998 -0.055 0
0.255 0.075000003 -0.055 0
0.255 0.064999998 -0.045000002 0
0.255 0.075000003 -0.045000002 0
0.27000001 0.07 -0.050000001 0
0.285 0.045000002 -0.064999998 0
0.285 0.045000002 -0.055 0
0.285 0.055 -0.055 0
0.285 0.045000002 -0.045000002 0
0.285 0.055 -0.045000002 0
0.29499999 0.055 -0.045000002 0
0.285 0.064999998 -0.055 0
0.285 0.075000003 -0.055 0
0.285 0.064999998 -0.045000002 0
0.29499999 0.064999998 -0.045000002 0
0.285 0.075000003 -0.045000002 0
0.255 0.0049999999 -0.035 0
0.255 0.015 -0.035 0
0.245 0.0049999999 -0.025 0
0.255 0.0049999999 -0.025 0
0.255 0.015 -0.025 0
0.27000001 0.0099999998 -0.029999999 0
0.255 0.025 -0.035 0
0.255 0.035 -0.035 0
0.26499999 0.025 -0.035 0
0.27500001 0.025 -0.035 0
0.26499999 0.035 -0.035 0
0.27500001 0.035 -0.035 0
0.26499999 0.025 -0.025 0
0.27500001 0.025 -0.025 0
0.26499999 0.035 -0.025 0
0.27500001 0.035 -0.025 0
0.285 0.0049999999 -0.035 0
0.29499999 0.0049999999 -0.035 0
0.285 0.015 -0.035 0
0.29499999 0.015 -0.035 0
0.285 0.025 -0.035 0
0.29499999 0.025 -0.035 0
0.285 0.035 -0.035 0
0.255 0.045000002 -0.035 0
