# .PCD v0.7 - Point Cloud Data file format
VERSION 0.7
FIELDS x y z
SIZE 4 4 4
TYPE F F F
COUNT 1 1 1
WIDTH 637
HEIGHT 1
VIEWPOINT 0 0 0 1 0 0 0
POINTS 637
DATA ascii
-0.115 0.79500002 -0.405
-0.115 0.79500002 -0.375
-0.13500001 0.82499999 -0.42500001
-0.125 0.80500001 -0.41499999
-0.125 0.815 -0.41499999
-0.125 0.815 -0.405
-0.125 0.82499999 -0.41499999
-0.125 0.82499999 -0.405
-0.125 0.83499998 -0.405
-0.105 0.815 -0.42500001
-0.094999999 0.815 -0.42500001
-0.085000001 0.82499999 -0.42500001
-0.115 0.80500001 -0.41499999
-0.105 0.80500001 -0.41499999
-0.115 0.815 -0.41499999
-0.105 0.815 -0.41499999
-0.115 0.80500001 -0.405
-0.105 0.80500001 -0.405
-0.115 0.815 -0.405
-0.105 0.815 -0.405
-0.094999999 0.815 -0.41499999
-0.085000001 0.815 -0.41499999
-0.094999999 0.815 -0.405
-0.085000001 0.815 -0.405
-0.115 0.82499999 -0.405
-0.105 0.82499999 -0.405
-0.094999999 0.82499999 -0.41499999
-0.085000001 0.82499999 -0.41499999
-0.094999999 0.82499999 -0.405
-0.085000001 0.82499999 -0.405
-0.13500001 0.84500003 -0.405
-0.115 0.84500003 -0.41499999
-0.115 0.84500003 -0.405
-0.075000003 0.83499998 -0.405
-0.125 0.80500001 -0.39500001
-0.125 0.815 -0.39500001
-0.125 0.80500001 -0.38499999
-0.125 0.815 -0.38499999
-0.13500001 0.82499999 -0.39500001
-0.125 0.82499999 -0.39500001
-0.125 0.83499998 -0.39500001
-0.13500001 0.82499999 -0.38499999
-0.125 0.82499999 -0.38499999
-0.13500001 0.83499998 -0.38499999
-0.125 0.83499998 -0.38499999
-0.125 0.80500001 -0.375
-0.125 0.815 -0.375
-0.125 0.80500001 -0.36500001
-0.13500001 0.815 -0.36500001
-0.125 0.815 -0.36500001
-0.13500001 0.82499999 -0.375
-0.125 0.82499999 -0.375
-0.13500001 0.82499999 -0.36500001
-0.125 0.82499999 -0.36500001
-0.105 0.80500001 -0.39500001
-0.115 0.815 -0.39500001
-0.105 0.815 -0.39500001
-0.115 0.80500001 -0.38499999
-0.105 0.80500001 -0.38499999
-0.115 0.815 -0.38499999
-0.105 0.815 -0.38499999
-0.094999999 0.815 -0.39500001
-0.085000001 0.815 -0.39500001
-0.094999999 0.80500001 -0.38499999
-0.094999999 0.815 -0.38499999
-0.115 0.82499999 -0.39500001
-0.105 0.82499999 -0.39500001
-0.115 0.82499999 -0.38499999
-0.105 0.82499999 -0.38499999
-0.094999999 0.82499999 -0.39500001
-0.085000001 0.82499999 -0.39500001
-0.094999999 0.82499999 -0.38499999
-0.085000001 0.82499999 -0.38499999
-0.105 0.80500001 -0.375
-0.115 0.815 -0.375
-0.105 0.815 -0.375
-0.115 0.80500001 -0.36500001
-0.115 0.815 -0.36500001
-0.105 0.815 -0.36500001
-0.094999999 0.815 -0.375
-0.085000001 0.815 -0.375
-0.094999999 0.815 -0.36500001
-0.085000001 0.815 -0.36500001
-0.115 0.82499999 -0.375
-0.105 0.82499999 -0.375
-0.115 0.82499999 -0.36500001
-0.105 0.82499999 -0.36500001
-0.094999999 0.82499999 -0.375
-0.085000001 0.82499999 -0.375
-0.085000001 0.83499998 -0.375
-0.094999999 0.82499999 -0.36500001
-0.085000001 0.82499999 -0.36500001
-0.13500001 0.815 -0.35499999
-0.125 0.815 -0.35499999
-0.125 0.80500001 -0.345
-0.125 0.815 -0.345
-0.13500001 0.82499999 -0.35499999
-0.125 0.82499999 -0.35499999
-0.13500001 0.82499999 -0.345
-0.125 0.80500001 -0.33500001
-0.125 0.815 -0.33500001
-0.125 0.815 -0.32499999
-0.125 0.82499999 -0.33500001
-0.13500001 0.82499999 -0.32499999
-0.125 0.82499999 -0.32499999
-0.105 0.80500001 -0.35499999
-0.115 0.815 -0.35499999
-0.105 0.815 -0.35499999
-0.105 0.80500001 -0.345
-0.115 0.815 -0.345
-0.105 0.815 -0.345
-0.094999999 0.80500001 -0.35499999
-0.094999999 0.815 -0.35499999
-0.085000001 0.815 -0.35499999
-0.094999999 0.815 -0.345
-0.085000001 0.815 -0.345
-0.115 0.82499999 -0.35499999
-0.105 0.82499999 -0.35499999
-0.115 0.82499999 -0.345
-0.105 0.82499999 -0.345
-0.094999999 0.82499999 -0.35499999
-0.085000001 0.82499999 -0.35499999
-0.094999999 0.82499999 -0.345
-0.085000001 0.82499999 -0.345
-0.105 0.80500001 -0.33500001
-0.115 0.815 -0.33500001
-0.105 0.815 -0.33500001
-0.105 0.80500001 -0.32499999
-0.115 0.815 -0.32499999
-0.105 0.815 -0.32499999
-0.094999999 0.80500001 -0.33500001
-0.094999999 0.815 -0.33500001
-0.094999999 0.815 -0.32499999
-0.085000001 0.815 -0.32499999
-0.115 0.82499999 -0.33500001
-0.105 0.82499999 -0.33500001
-0.115 0.82499999 -0.32499999
-0.105 0.82499999 -0.32499999
-0.094999999 0.82499999 -0.33500001
-0.085000001 0.82499999 -0.33500001
-0.094999999 0.82499999 -0.32499999
-0.085000001 0.82499999 -0.32499999
-0.115 0.84500003 -0.35499999
-0.075000003 0.82499999 -0.39500001
-0.075000003 0.83499998 -0.38499999
-0.075000003 0.815 -0.36500001
-0.075000003 0.82499999 -0.375
-0.064999998 0.83499998 -0.375
-0.075000003 0.82499999 -0.36500001
-0.075000003 0.82499999 -0.35499999
-0.075000003 0.82499999 -0.345
-0.075000003 0.83499998 -0.33500001
-0.125 0.79500002 -0.315
-0.115 0.79500002 -0.22499999
-0.13500001 0.815 -0.315
-0.125 0.815 -0.315
-0.125 0.815 -0.30500001
-0.13500001 0.82499999 -0.315
-0.125 0.82499999 -0.315
-0.13500001 0.82499999 -0.30500001
-0.125 0.82499999 -0.30500001
-0.13500001 0.815 -0.29499999
-0.125 0.815 -0.29499999
-0.125 0.815 -0.285
-0.125 0.82499999 -0.29499999
-0.13500001 0.82499999 -0.285
-0.125 0.82499999 -0.285
-0.13500001 0.83499998 -0.285
-0.115 0.80500001 -0.315
-0.105 0.80500001 -0.315
-0.115 0.815 -0.315
-0.105 0.815 -0.315
-0.115 0.80500001 -0.30500001
-0.115 0.815 -0.30500001
-0.105 0.815 -0.30500001
-0.094999999 0.80500001 -0.315
-0.094999999 0.815 -0.315
-0.094999999 0.815 -0.30500001
-0.085000001 0.815 -0.30500001
-0.115 0.82499999 -0.315
-0.105 0.82499999 -0.315
-0.115 0.82499999 -0.30500001
-0.105 0.82499999 -0.30500001
-0.105 0.83499998 -0.30500001
-0.094999999 0.82499999 -0.315
-0.085000001 0.82499999 -0.315
-0.094999999 0.82499999 -0.30500001
-0.085000001 0.82499999 -0.30500001
-0.085000001 0.83499998 -0.30500001
-0.105 0.80500001 -0.29499999
-0.115 0.815 -0.29499999
-0.105 0.815 -0.29499999
-0.115 0.815 -0.285
-0.105 0.815 -0.285
-0.094999999 0.815 -0.29499999
-0.085000001 0.815 -0.29499999
-0.094999999 0.80500001 -0.285
-0.094999999 0.815 -0.285
-0.085000001 0.815 -0.285
-0.115 0.82499999 -0.29499999
-0.105 0.82499999 -0.29499999
-0.115 0.82499999 -0.285
-0.105 0.82499999 -0.285
-0.094999999 0.82499999 -0.29499999
-0.085000001 0.82499999 -0.29499999
-0.094999999 0.82499999 -0.285
-0.085000001 0.82499999 -0.285
-0.125 0.80500001 -0.27500001
-0.13500001 0.815 -0.27500001
-0.125 0.815 -0.27500001
-0.125 0.815 -0.26499999
-0.13500001 0.82499999 -0.27500001
-0.125 0.82499999 -0.27500001
-0.13500001 0.83499998 -0.27500001
-0.13500001 0.82499999 -0.26499999
-0.125 0.82499999 -0.26499999
-0.125 0.815 -0.255
-0.125 0.80500001 -0.245
-0.13500001 0.815 -0.245
-0.125 0.815 -0.245
-0.13500001 0.82499999 -0.255
-0.125 0.82499999 -0.255
-0.13500001 0.82499999 -0.245
-0.125 0.82499999 -0.245
-0.105 0.80500001 -0.27500001
-0.115 0.815 -0.27500001
-0.105 0.815 -0.27500001
-0.115 0.80500001 -0.26499999
-0.105 0.80500001 -0.26499999
-0.115 0.815 -0.26499999
-0.105 0.815 -0.26499999
-0.094999999 0.815 -0.27500001
-0.094999999 0.80500001 -0.26499999
-0.094999999 0.815 -0.26499999
-0.085000001 0.815 -0.26499999
-0.115 0.82499999 -0.27500001
-0.105 0.82499999 -0.27500001
-0.115 0.82499999 -0.26499999
-0.105 0.82499999 -0.26499999
-0.094999999 0.82499999 -0.27500001
-0.085000001 0.82499999 -0.27500001
-0.094999999 0.82499999 -0.26499999
-0.085000001 0.82499999 -0.26499999
-0.115 0.80500001 -0.255
-0.115 0.815 -0.255
-0.105 0.815 -0.255
-0.115 0.80500001 -0.245
-0.115 0.815 -0.245
-0.105 0.815 -0.245
-0.094999999 0.815 -0.255
-0.085000001 0.815 -0.255
-0.085000001 0.80500001 -0.245
-0.094999999 0.815 -0.245
-0.085000001 0.815 -0.245
-0.115 0.82499999 -0.255
-0.105 0.82499999 -0.255
-0.115 0.82499999 -0.245
-0.105 0.82499999 -0.245
-0.105 0.83499998 -0.245
-0.094999999 0.82499999 -0.255
-0.085000001 0.82499999 -0.255
-0.094999999 0.82499999 -0.245
-0.085000001 0.82499999 -0.245
-0.075000003 0.83499998 -0.315
-0.075000003 0.83499998 -0.30500001
-0.075000003 0.82499999 -0.29499999
-0.075000003 0.82499999 -0.285
-0.075000003 0.83499998 -0.26499999
-0.125 0.815 -0.235
-0.125 0.80500001 -0.22499999
-0.13500001 0.815 -0.22499999
-0.125 0.815 -0.22499999
-0.13500001 0.82499999 -0.235
-0.125 0.82499999 -0.235
-0.13500001 0.82499999 -0.22499999
-0.125 0.82499999 -0.22499999
-0.125 0.80500001 -0.215
-0.13500001 0.815 -0.215
-0.125 0.815 -0.215
-0.125 0.815 -0.205
-0.13500001 0.82499999 -0.215
-0.125 0.82499999 -0.215
-0.13500001 0.82499999 -0.205
-0.125 0.82499999 -0.205
-0.115 0.80500001 -0.235
-0.115 0.815 -0.235
-0.105 0.815 -0.235
-0.115 0.80500001 -0.22499999
-0.105 0.80500001 -0.22499999
-0.115 0.815 -0.22499999
-0.105 0.815 -0.22499999
-0.094999999 0.815 -0.235
-0.094999999 0.815 -0.22499999
-0.085000001 0.815 -0.22499999
-0.115 0.82499999 -0.235
-0.105 0.82499999 -0.235
-0.115 0.82499999 -0.22499999
-0.105 0.82499999 -0.22499999
-0.094999999 0.82499999 -0.235
-0.085000001 0.82499999 -0.235
-0.094999999 0.82499999 -0.22499999
-0.085000001 0.82499999 -0.22499999
-0.105 0.80500001 -0.215
-0.115 0.815 -0.215
-0.105 0.815 -0.215
-0.115 0.80500001 -0.205
-0.105 0.80500001 -0.205
-0.115 0.815 -0.205
-0.105 0.815 -0.205
-0.094999999 0.815 -0.215
-0.085000001 0.815 -0.215
-0.094999999 0.815 -0.205
-0.115 0.82499999 -0.215
-0.105 0.82499999 -0.215
-0.115 0.82499999 -0.205
-0.105 0.82499999 -0.205
-0.094999999 0.82499999 -0.215
-0.085000001 0.82499999 -0.215
-0.094999999 0.82499999 -0.205
-0.085000001 0.82499999 -0.205
-0.125 0.80500001 -0.19499999
-0.125 0.815 -0.19499999
-0.125 0.815 -0.185
-0.13500001 0.82499999 -0.19499999
-0.125 0.82499999 -0.19499999
-0.13500001 0.82499999 -0.185
-0.125 0.82499999 -0.185
-0.13500001 0.83499998 -0.185
-0.125 0.80500001 -0.175
-0.125 0.815 -0.175
-0.125 0.80500001 -0.16500001
-0.125 0.815 -0.16500001
-0.13500001 0.82499999 -0.175
-0.125 0.82499999 -0.175
-0.13500001 0.83499998 -0.175
-0.13500001 0.82499999 -0.16500001
-0.125 0.82499999 -0.16500001
-0.13500001 0.83499998 -0.16500001
-0.105 0.80500001 -0.19499999
-0.115 0.815 -0.19499999
-0.105 0.815 -0.19499999
-0.115 0.80500001 -0.185
-0.105 0.80500001 -0.185
-0.115 0.815 -0.185
-0.105 0.815 -0.185
-0.094999999 0.80500001 -0.19499999
-0.094999999 0.815 -0.19499999
-0.085000001 0.815 -0.19499999
-0.094999999 0.815 -0.185
-0.085000001 0.815 -0.185
-0.115 0.82499999 -0.19499999
-0.105 0.82499999 -0.19499999
-0.115 0.82499999 -0.185
-0.105 0.82499999 -0.185
-0.094999999 0.82499999 -0.19499999
-0.085000001 0.82499999 -0.19499999
-0.085000001 0.83499998 -0.19499999
-0.094999999 0.82499999 -0.185
-0.085000001 0.82499999 -0.185
-0.115 0.80500001 -0.175
-0.105 0.80500001 -0.175
-0.115 0.815 -0.175
-0.105 0.815 -0.175
-0.115 0.80500001 -0.16500001
-0.115 0.815 -0.16500001
-0.105 0.815 -0.16500001
-0.094999999 0.815 -0.175
-0.085000001 0.80500001 -0.16500001
-0.094999999 0.815 -0.16500001
-0.085000001 0.815 -0.16500001
-0.115 0.82499999 -0.175
-0.105 0.82499999 -0.175
-0.115 0.82499999 -0.16500001
-0.105 0.82499999 -0.16500001
-0.094999999 0.82499999 -0.175
-0.085000001 0.82499999 -0.175
-0.085000001 0.83499998 -0.175
-0.094999999 0.82499999 -0.16500001
-0.085000001 0.82499999 -0.16500001
-0.085000001 0.83499998 -0.16500001
-0.075000003 0.82499999 -0.22499999
-0.075000003 0.83499998 -0.22499999
-0.075000003 0.83499998 -0.205
-0.075000003 0.83499998 -0.19499999
-0.105 0.79500002 -0.094999999
-0.115 0.79500002 -0.025
-0.105 0.79500002 -0.015
-0.115 0.79500002 -0.0049999999
-0.145 0.815 -0.155
-0.125 0.80500001 -0.155
-0.13500001 0.815 -0.155
-0.125 0.815 -0.155
-0.13500001 0.815 -0.145
-0.125 0.815 -0.145
-0.13500001 0.82499999 -0.155
-0.125 0.82499999 -0.155
-0.13500001 0.82499999 -0.145
-0.125 0.82499999 -0.145
-0.125 0.815 -0.13500001
-0.125 0.80500001 -0.125
-0.13500001 0.815 -0.125
-0.125 0.815 -0.125
-0.125 0.82499999 -0.13500001
-0.13500001 0.82499999 -0.125
-0.125 0.82499999 -0.125
-0.13500001 0.83499998 -0.125
-0.125 0.83499998 -0.125
-0.115 0.80500001 -0.155
-0.115 0.815 -0.155
-0.105 0.815 -0.155
-0.115 0.80500001 -0.145
-0.105 0.80500001 -0.145
-0.115 0.815 -0.145
-0.105 0.815 -0.145
-0.094999999 0.815 -0.155
-0.085000001 0.815 -0.155
-0.094999999 0.80500001 -0.145
-0.094999999 0.815 -0.145
-0.115 0.82499999 -0.155
-0.105 0.82499999 -0.155
-0.115 0.82499999 -0.145
-0.105 0.82499999 -0.145
-0.094999999 0.82499999 -0.155
-0.085000001 0.82499999 -0.155
-0.085000001 0.83499998 -0.155
-0.094999999 0.82499999 -0.145
-0.085000001 0.82499999 -0.145
-0.085000001 0.83499998 -0.145
-0.115 0.80500001 -0.13500001
-0.105 0.80500001 -0.13500001
-0.115 0.815 -0.13500001
-0.105 0.815 -0.13500001
-0.115 0.80500001 -0.125
-0.115 0.815 -0.125
-0.105 0.815 -0.125
-0.094999999 0.815 -0.13500001
-0.094999999 0.80500001 -0.125
-0.094999999 0.815 -0.125
-0.085000001 0.815 -0.125
-0.115 0.82499999 -0.13500001
-0.105 0.82499999 -0.13500001
-0.115 0.82499999 -0.125
-0.105 0.82499999 -0.125
-0.094999999 0.82499999 -0.13500001
-0.085000001 0.82499999 -0.13500001
-0.085000001 0.83499998 -0.13500001
-0.094999999 0.82499999 -0.125
-0.085000001 0.82499999 -0.125
-0.085000001 0.83499998 -0.125
-0.13500001 0.815 -0.115
-0.125 0.815 -0.115
-0.125 0.815 -0.105
-0.13500001 0.82499999 -0.115
-0.125 0.82499999 -0.115
-0.13500001 0.82499999 -0.105
-0.125 0.82499999 -0.105
-0.125 0.815 -0.094999999
-0.125 0.815 -0.085000001
-0.13500001 0.82499999 -0.094999999
-0.125 0.82499999 -0.094999999
-0.13500001 0.82499999 -0.085000001
-0.125 0.82499999 -0.085000001
-0.13500001 0.83499998 -0.085000001
-0.115 0.80500001 -0.115
-0.105 0.80500001 -0.115
-0.115 0.815 -0.115
-0.105 0.815 -0.115
-0.115 0.815 -0.105
-0.105 0.815 -0.105
-0.094999999 0.815 -0.115
-0.094999999 0.815 -0.105
-0.115 0.82499999 -0.115
-0.105 0.82499999 -0.115
-0.115 0.82499999 -0.105
-0.105 0.82499999 -0.105
-0.094999999 0.82499999 -0.115
-0.085000001 0.82499999 -0.115
-0.085000001 0.83499998 -0.115
-0.094999999 0.82499999 -0.105
-0.085000001 0.82499999 -0.105
-0.085000001 0.83499998 -0.105
-0.115 0.80500001 -0.094999999
-0.105 0.80500001 -0.094999999
-0.115 0.815 -0.094999999
-0.105 0.815 -0.094999999
-0.115 0.80500001 -0.085000001
-0.115 0.815 -0.085000001
-0.105 0.815 -0.085000001
-0.094999999 0.815 -0.094999999
-0.094999999 0.815 -0.085000001
-0.085000001 0.815 -0.085000001
-0.115 0.82499999 -0.094999999
-0.105 0.82499999 -0.094999999
-0.115 0.82499999 -0.085000001
-0.105 0.82499999 -0.085000001
-0.094999999 0.82499999 -0.094999999
-0.085000001 0.82499999 -0.094999999
-0.094999999 0.82499999 -0.085000001
-0.085000001 0.82499999 -0.085000001
-0.075000003 0.82499999 -0.105
-0.075000003 0.83499998 -0.105
-0.075000003 0.83499998 -0.085000001
-0.125 0.80500001 -0.075000003
-0.13500001 0.815 -0.075000003
-0.125 0.815 -0.075000003
-0.125 0.80500001 -0.064999998
-0.13500001 0.815 -0.064999998
-0.125 0.815 -0.064999998
-0.145 0.83499998 -0.075000003
-0.13500001 0.82499999 -0.075000003
-0.125 0.82499999 -0.075000003
-0.125 0.83499998 -0.075000003
-0.13500001 0.82499999 -0.064999998
-0.125 0.82499999 -0.064999998
-0.13500001 0.83499998 -0.064999998
-0.125 0.80500001 -0.055
-0.13500001 0.815 -0.055
-0.125 0.815 -0.055
-0.125 0.80500001 -0.045000002
-0.125 0.815 -0.045000002
-0.125 0.82499999 -0.055
-0.13500001 0.83499998 -0.055
-0.13500001 0.82499999 -0.045000002
-0.125 0.82499999 -0.045000002
-0.13500001 0.83499998 -0.045000002
-0.125 0.83499998 -0.045000002
-0.115 0.80500001 -0.075000003
-0.105 0.80500001 -0.075000003
-0.115 0.815 -0.075000003
-0.105 0.815 -0.075000003
-0.115 0.80500001 -0.064999998
-0.105 0.80500001 -0.064999998
-0.115 0.815 -0.064999998
-0.105 0.815 -0.064999998
-0.094999999 0.815 -0.075000003
-0.085000001 0.815 -0.075000003
-0.094999999 0.815 -0.064999998
-0.105 0.82499999 -0.075000003
-0.105 0.83499998 -0.075000003
-0.115 0.82499999 -0.064999998
-0.105 0.82499999 -0.064999998
-0.094999999 0.82499999 -0.075000003
-0.085000001 0.82499999 -0.075000003
-0.094999999 0.82499999 -0.064999998
-0.085000001 0.82499999 -0.064999998
-0.115 0.80500001 -0.055
-0.105 0.80500001 -0.055
-0.115 0.815 -0.055
-0.105 0.815 -0.055
-0.115 0.80500001 -0.045000002
-0.105 0.80500001 -0.045000002
-0.115 0.815 -0.045000002
-0.105 0.815 -0.045000002
-0.094999999 0.80500001 -0.055
-0.094999999 0.815 -0.055
-0.085000001 0.815 -0.055
-0.094999999 0.80500001 -0.045000002
-0.094999999 0.815 -0.045000002
-0.085000001 0.815 -0.045000002
-0.115 0.82499999 -0.055
-0.105 0.82499999 -0.055
-0.115 0.82499999 -0.045000002
-0.105 0.82499999 -0.045000002
-0.094999999 0.82499999 -0.055
-0.085000001 0.82499999 -0.055
-0.085000001 0.83499998 -0.055
-0.094999999 0.82499999 -0.045000002
-0.085000001 0.82499999 -0.045000002
-0.085000001 0.83499998 -0.045000002
-0.125 0.815 -0.035
-0.13500001 0.815 -0.025
-0.125 0.815 -0.025
-0.145 0.82499999 -0.025
-0.13500001 0.82499999 -0.035
-0.125 0.82499999 -0.035
-0.13500001 0.83499998 -0.035
-0.13500001 0.82499999 -0.025
-0.125 0.82499999 -0.025
-0.13500001 0.815 -0.015
-0.125 0.815 -0.015
-0.125 0.80500001 -0.0049999999
-0.13500001 0.815 -0.0049999999
-0.125 0.815 -0.0049999999
-0.145 0.82499999 -0.0049999999
-0.13500001 0.82499999 -0.015
-0.125 0.82499999 -0.015
-0.13500001 0.82499999 -0.0049999999
-0.125 0.82499999 -0.0049999999
-0.115 0.80500001 -0.035
-0.105 0.80500001 -0.035
-0.115 0.815 -0.035
-0.105 0.815 -0.035
-0.115 0.80500001 -0.025
-0.105 0.80500001 -0.025
-0.115 0.815 -0.025
-0.105 0.815 -0.025
-0.094999999 0.80500001 -0.035
-0.094999999 0.815 -0.035
-0.094999999 0.80500001 -0.025
-0.094999999 0.815 -0.025
-0.085000001 0.815 -0.025
-0.115 0.82499999 -0.035
-0.105 0.82499999 -0.035
-0.105 0.83499998 -0.035
-0.115 0.82499999 -0.025
-0.105 0.82499999 -0.025
-0.094999999 0.82499999 -0.035
-0.085000001 0.82499999 -0.035
-0.085000001 0.83499998 -0.035
-0.094999999 0.82499999 -0.025
-0.085000001 0.82499999 -0.025
-0.085000001 0.83499998 -0.025
-0.115 0.80500001 -0.015
-0.105 0.80500001 -0.015
-0.115 0.815 -0.015
-0.105 0.815 -0.015
-0.115 0.80500001 -0.0049999999
-0.105 0.80500001 -0.0049999999
-0.094999999 0.80500001 -0.015
-0.094999999 0.815 -0.015
-0.085000001 0.815 -0.015
-0.094999999 0.80500001 -0.0049999999
-0.094999999 0.815 -0.0049999999
-0.085000001 0.815 -0.0049999999
-0.115 0.82499999 -0.015
-0.105 0.82499999 -0.015
-0.094999999 0.82499999 -0.015
-0.085000001 0.82499999 -0.015
-0.085000001 0.83499998 -0.015
-0.094999999 0.82499999 -0.0049999999
-0.085000001 0.82499999 -0.0049999999
-0.075000003 0.83499998 -0.064999998
-0.075000003 0.83499998 -0.055
-0.075000003 0.83499998 -0.025
-0.075000003 0.82499999 -0.015
-0.075000003 0.83499998 -0.015
-0.075000003 0.82499999 -0.0049999999
