# .PCD v0.7 - Point Cloud Data file format
VERSION 0.7
FIELDS x y z rgb
SIZE 4 4 4 4
TYPE F F F F
COUNT 1 1 1 1
WIDTH 1378
HEIGHT 1
VIEWPOINT 0 0 0 1 0 0 0
POINTS 1378
DATA ascii
2.8494055 -2.3704429 -0.0021783113 0
2.8462 -2.3852873 0.000623703 0
2.8463898 -2.4018941 0.0013619661 0
2.8488965 -2.419765 0.00069487095 0
2.8485985 -2.4362524 0.0017366409 0
2.855274 -2.4565029 -0.0014535189 0
2.8471363 -2.4689336 0.0043543577 0
2.8562675 -2.4907165 -0.00031530857 0
2.8505924 -2.5045342 0.0040014982 0
2.8593154 -2.5263517 -0.00040733814 0
2.8547168 -2.5408542 0.003261447 0
2.856488 -2.5589869 0.003074646 0
2.8560503 -2.5759404 0.0042289495 0
2.8699155 -2.601265 -0.0032621622 0
2.8670917 -2.6170361 -0.00065433979 0
2.8692851 -2.6358199 -0.001075387 0
2.8652465 -2.6509666 0.0022711754 0
2.8669224 -2.6695995 0.002170682 0
2.8669026 -2.6872897 0.003098011 0
2.8663654 -2.7047355 0.0043410063 0
2.8701372 -2.7249467 0.0029917955 0
2.8754759 -2.7462749 0.00070595741 0
2.8729231 -2.7627146 0.0031763315 0
2.8807423 -2.7858915 -0.00058829784 0
2.8824768 -2.8052886 -0.00068628788 0
2.8829641 -2.8239722 -2.9802322e-05 0
2.8773282 -2.8386765 0.0043078661 0
2.8872914 -2.8638654 -0.00071382523 0
2.8909471 -2.8849978 -0.0019414425 0
2.8860505 -2.9004123 0.001963377 0
2.8890867 -2.9213371 0.0011183023 0
2.898556 -2.9468875 -0.0035710335 0
2.8950632 -2.9635208 -0.00049424171 0
2.897809 -2.984642 -0.0011450052 0
2.8957622 -3.0024531 0.0010751486 0
2.8972163 -3.0228741 0.0012079477 0
2.9021976 -3.0460007 -0.00075793266 0
2.9002638 -3.0641813 0.0014094114 0
2.9023919 -3.0854714 0.0011595488 0
2.9072669 -3.1089666 -0.00072002411 0
2.9018068 -3.1247718 0.003562808 0
2.9044898 -3.1468627 0.0030019283 0
2.9101002 -3.1713698 0.00070798397 0
2.9119244 -3.1931069 0.00067400932 0
2.9085793 -3.2108996 0.0037173033 0
2.9130976 -3.2350273 0.0020967722 0
2.9210045 -3.262063 -0.0015239716 0
2.9217105 -3.2834878 -0.00086426735 0
2.9271955 -3.308959 -0.0030288696 0
2.9226453 -3.3263381 0.00075769424 0
2.9192657 -3.344749 0.0038548708 0
2.9262176 -3.3719332 0.00084781647 0
2.9289918 -3.3958023 0.00032091141 0
2.9273303 -3.4160416 0.0024222136 0
2.9302375 -3.4403391 0.0018332005 0
2.9340925 -3.4656434 0.00069463253 0
2.9359219 -3.4893608 0.0007597208 0
1.2015634 -1.9711473 1.0231094 0
1.1874228 -1.967183 1.0318799 0
1.1776975 -1.9670416 1.0380455 0
1.165308 -1.9643706 1.0457714 0
1.153937 -1.9624932 1.052892 0
1.1523231 -1.9695449 1.0542808 0
1.1337951 -1.9607893 1.0655885 0
1.1266453 -1.9625344 1.0702169 0
1.121666 -1.9662871 1.0735714 0
1.112354 -1.9658505 1.0794593 0
1.1031506 -1.9654214 1.0852789 0
1.0969541 -1.9678369 1.0893369 0
1.0793976 -1.9589999 1.1000236 0
1.0707581 -1.9587955 1.1054968 0
1.063146 -1.959533 1.1103665 0
1.0595719 -1.9642866 1.1128809 0
1.0494657 -1.9623685 1.1191964 0
1.0386317 -1.9595846 1.1259291 0
1.032083 -1.9611219 1.1301652 0
1.0267874 -1.9639169 1.133671 0
1.011129 -1.955729 1.1431865 0
1.0111139 -1.9639928 1.1436234 0
1.0012401 -1.9617224 1.1497731 0
0.99791825 -1.9664378 1.1521255 0
1.0042514 -1.9817133 1.1488955 0
1.0040618 -1.98998 1.1494431 0
1.0033144 -1.9976901 1.1503162 0
1.0035992 -2.0066121 1.1505967 0
1.1815429 -2.216599 1.0485079 0
1.1789132 -2.2240644 1.0505629 0
1.1737703 -2.228672 1.0540657 0
1.1709253 -2.2359328 1.0562468 0
1.1671647 -2.2421541 1.0589554 0
1.1712018 -2.2575951 1.0571913 0
1.1675993 -2.2641127 1.0598149 0
1.1701245 -2.278008 1.0589304 0
1.1701903 -2.2890706 1.0594608 0
1.1723797 -2.3028243 1.0587821 0
1.1667275 -2.3070626 1.0625889 0
1.1696483 -2.3219314 1.0615038 0
1.1653347 -2.3278995 1.0645504 0
1.1646253 -2.3384326 1.0655452 0
1.1698341 -2.3565967 1.0631782 0
1.1656541 -2.3629131 1.0661581 0
1.1679904 -2.3776937 1.0654392 0
1.1681467 -2.3897862 1.0659652 0
1.1691438 -2.4031034 1.066021 0
1.1642812 -2.4087648 1.0694001 0
1.166177 -2.4234972 1.0689585 0
1.1687996 -2.4393754 1.0681148 0
1.1662556 -2.448385 1.0701954 0
1.1653347 -2.4596925 1.0713646 0
1.1674665 -2.4753416 1.0708206 0
1.1647836 -2.4844275 1.0729933 0
1.1618268 -2.4931917 1.0753231 0
1.1679399 -2.5149386 1.0725675 0
1.1587504 -2.5149796 1.0784024 0
1.165175 -2.5375638 1.0754921 0
1.1692252 -2.5569785 1.0739253 0
1.1680292 -2.5689011 1.0753008 0
1.1678951 -2.58252 1.0760901 0
1.1649625 -2.5920837 1.078446 0
1.1677619 -2.6104023 1.0776162 0
1.162832 -2.6171432 1.0810939 0
1.1619012 -2.6300726 1.0823531 0
1.1650846 -2.6495345 1.0813389 0
1.1663421 -2.6662273 1.0814037 0
1.1621919 -2.6745651 1.0844693 0
1.1620264 -2.6893201 1.0853372 0
1.1626003 -2.705436 1.0858061 0
1.1624637 -2.720592 1.0866765 0
1.1632404 -2.7374239 1.0870537 0
1.1652259 -2.7564645 1.0867779 0
1.1596227 -2.7630835 1.0906767 0
1.1649023 -2.7880645 1.0886171 0
1.1587186 -2.7939134 1.0928445 0
1.1587828 -2.8104937 1.0936611 0
1.1654376 -2.8386946 1.0908952 0
1.1635293 -2.8523538 1.0928125 0
1.1601015 -2.8634884 1.0955641 0
1.1583333 -2.8776858 1.0974205 0
1.162408 -2.9025478 1.0961196 0
1.1603707 -2.9166937 1.0981441 0
1.1576238 -2.9297075 1.1005605 0
1.1612831 -2.9547043 1.0995302 0
1.1585051 -2.9680686 1.1019845 0
1.1561153 -2.9823189 1.1042383 0
1.1541357 -2.9975209 1.1062808 0
1.1570781 -3.0223596 1.1056974 0
1.1567889 -3.0413151 1.106861 0
1.1574987 -3.0624909 1.1075053 0
1.1550627 -3.077764 1.1098413 0
1.157109 -3.1021729 1.1098044 0
1.1571391 -3.1228974 1.1108569 0
1.154111 -3.1377096 1.1135447 0
1.1535779 -3.1578362 1.1149237 0
1.1431485 -3.1577342 1.1215383 0
1.1366771 -3.1658192 1.1260638 0
1.1251335 -3.1632314 1.1332572 0
1.1191308 -3.1723316 1.1375377 0
1.1030552 -3.1597691 1.1470919 0
1.1013819 -3.1782587 1.1491101 0
1.1074207 -3.2140203 1.147126 0
3.3222637 -8.1674652 -0.0025861263 0
3.3289604 -8.2570934 -0.00220263 0
3.3337808 -8.3440037 -0.0007686615 0
3.3409674 -8.4378471 -0.00047814846 0
3.3505507 -8.5389061 -0.0013356209 0
3.3553514 -8.6305666 0.00035643578 0
3.3641739 -8.7333889 7.2717667e-05 0
3.3759308 -8.8451252 -0.0016125441 0
3.384588 -8.9514351 -0.0016108751 0
3.3922658 -9.0573254 -0.0010092258 0
3.4043388 -9.1760826 -0.0025322437 0
3.4118404 -9.285677 -0.0016272068 0
3.4235787 -9.4080906 -0.0027483702 0
3.4317389 -9.5237427 -0.0019483566 0
3.4383526 -9.6376476 -0.00025677681 0
3.4532664 -9.775528 -0.0025941133 0
3.4600043 -9.8945599 -0.00071644783 0
1.4824646 -5.3971567 1.0219516 0
1.4632927 -5.3939075 1.0339525 0
1.44462 -5.3920279 1.0457075 0
1.4279555 -5.3965774 1.0565201 0
1.4121789 -5.4040627 1.066921 0
1.3931149 -5.400382 1.0788312 0
1.3735957 -5.3948536 1.0909346 0
1.3567196 -5.3982534 1.1018221 0
1.3417032 -5.4081879 1.1118672 0
1.3229376 -5.4047246 1.1235993 0
1.3036058 -5.3989172 1.1355693 0
1.2839631 -5.3916116 1.1476595 0
1.2690235 -5.4016414 1.1576607 0
1.2502522 -5.3971491 1.169343 0
1.2308394 -5.3898578 1.181288 0
1.2151579 -5.396894 1.1916053 0
1.1996822 -5.4048123 1.2018375 0
1.1808738 -5.3992438 1.213488 0
1.1632986 -5.3984342 1.2246015 0
1.1453152 -5.3957143 1.2358755 0
1.1286001 -5.3981662 1.2466117 0
1.1116745 -5.3996224 1.2574302 0
1.0955235 -5.4043946 1.2679285 0
1.0769807 -5.3983998 1.2793882 0
1.0607747 -5.4027424 1.2898991 0
1.0435276 -5.4022207 1.3008194 0
1.0273579 -5.4066415 1.3113112 0
1.0090716 -5.4008155 1.3226171 0
0.99098593 -5.3955989 1.3338268 0
0.97513002 -5.4012418 1.3441827 0
0.95739013 -5.3972816 1.355238 0
0.94138592 -5.4020901 1.3656449 0
0.92504287 -5.405129 1.3761754 0
0.90659714 -5.3966756 1.3874464 0
0.89052004 -5.4008951 1.3978692 0
0.87427282 -5.4041758 1.4083514 0
0.85496533 -5.389648 1.4198552 0
0.83909869 -5.3947749 1.4301914 0
0.82338911 -5.4009428 1.4404817 0
0.80779833 -5.40799 1.4507419 0
0.78948814 -5.3978777 1.4618411 0
0.77174175 -5.3908019 1.4727393 0
0.75608289 -5.3972116 1.4830098 0
0.74054629 -5.4046435 1.4932556 0
0.72322536 -5.3997273 1.5039957 0
0.70732772 -5.404716 1.5143442 0
0.68961138 -5.3962803 1.5251532 0
0.67313564 -5.3967271 1.5356338 0
0.65669465 -5.3973312 1.5461006 0
0.6417045 -5.4096346 1.5562515 0
0.62366635 -5.396987 1.5670469 0
0.60718954 -5.3969064 1.5775011 0
0.59105802 -5.3997774 1.5878886 0
0.57417864 -5.3957748 1.5983955 0
0.55898899 -5.4075608 1.6086462 0
0.54251522 -5.4073062 1.6190894 0
0.52591288 -5.4055676 1.6295375 0
0.50906461 -5.4009132 1.6399909 0
0.4932338 -5.4071293 1.6503606 0
0.47641724 -5.4022408 1.6607817 0
0.46027082 -5.4049616 1.6711711 0
0.44365585 -5.4018278 1.681555 0
0.42738628 -5.4028888 1.6919366 0
0.41095573 -5.4016647 1.7023023 0
0.39488691 -5.4055796 1.7127041 0
0.3785125 -5.4050121 1.723068 0
0.36175096 -5.3977742 1.7333329 0
0.34569216 -5.4020233 1.7437456 0
0.32950586 -5.4043312 1.7541387 0
0.31290585 -5.3983746 1.7643673 0
0.29646948 -5.3949885 1.7746248 0
0.28062293 -5.4052343 1.7852129 0
0.26459184 -5.4124851 1.7957631 0
0.24776101 -5.3975983 1.8056765 0
0.23154952 -5.3995643 1.8160679 0
0.21501571 -5.3898406 1.8260597 0
0.19894335 -5.3972349 1.8366437 0
0.1827192 -5.3995299 1.8470602 0
0.16645032 -5.400063 1.8574141 0
0.15000471 -5.3858871 1.8671197 0
0.13385414 -5.3959184 1.8778896 0
0.11763468 -5.4076815 1.8887928 0
0.10130475 -5.3838987 1.8979281 0
0.085025579 -5.3989091 1.9090371 0
0.068688408 -5.4054985 1.9197475 0
0.05244536 -5.3980227 1.9296708 0
0.036208935 -5.3935685 1.9397463 0
0.019897766 -5.3947711 1.9501617 0
0.0034440607 -5.4018331 1.9609704 0
-0.012862988 -5.4007387 1.9712644 0
-0.029212862 -5.4011002 1.9816608 0
-0.045453742 -5.3977923 1.9917984 0
-0.061764926 -5.3968277 2.0021017 0
-0.07844992 -5.405097 2.0131197 0
-0.095051751 -5.4098258 2.0239019 0
-0.11115669 -5.4031348 2.0337782 0
-0.12720291 -5.3960347 2.043596 0
-0.14376077 -5.3989615 2.0542572 0
-0.16043864 -5.4033337 2.0650692 0
-0.17696996 -5.4046078 2.0756278 0
-0.19276752 -5.394444 2.0851295 0
-0.20924951 -5.3949323 2.0956163 0
-0.22591011 -5.3975773 2.106328 0
-0.24257056 -5.3997512 2.1170154 0
-0.25907534 -5.3995957 2.1274834 0
-0.275388 -5.3969817 2.1377025 0
-0.29246235 -5.4029675 2.1488495 0
-0.3088184 -5.4004898 2.1591029 0
-0.32544851 -5.4008479 2.169677 0
-0.3423717 -5.4039001 2.1805766 0
-0.36021596 -5.4154072 2.1924977 0
-0.3762095 -5.4086919 2.202302 0
-0.39120448 -5.39326 2.2110219 0
-0.40820736 -5.3960848 2.2219603 0
-0.42425132 -5.3904638 2.2318532 0
-0.44169223 -5.3963742 2.2432289 0
-0.45892906 -5.4001174 2.2543633 0
-0.47597837 -5.4020014 2.2652824 0
-0.49250752 -5.3996992 2.2756548 0
-0.50942194 -5.4001207 2.2864127 0
-0.52626175 -5.3997951 2.2970846 0
-0.5432446 -5.4002705 2.3078887 0
-0.56007987 -5.3995371 2.3185368 0
-0.57558018 -5.3899345 2.3278787 0
-0.59442633 -5.4018927 2.3404591 0
-0.6120168 -5.4052835 2.3517995 0
-0.62814254 -5.3994355 2.3617327 0
-0.64644974 -5.4065804 2.3737223 0
-0.66249764 -5.400126 2.3835745 0
-0.68128383 -5.4092655 2.3959713 0
-0.69586474 -5.3945136 2.4044635 0
-0.71577102 -5.40907 2.4178512 0
-0.73099744 -5.3979731 2.4269421 0
-0.74680668 -5.3901629 2.436573 0
-0.76712632 -5.4054613 2.4502614 0
-0.78320277 -5.398756 2.4601188 0
-0.80131096 -5.4020691 2.4717839 0
-0.8173731 -5.3952217 2.4816251 0
-0.83535206 -5.3974776 2.4931533 0
-0.85373044 -5.4013004 2.5050163 0
-0.87038767 -5.3969636 2.5153649 0
-0.88922608 -5.4023204 2.5275991 0
-0.90838557 -5.4087 2.5400901 0
-0.92275804 -5.3940282 2.548454 0
-0.94289643 -5.4040842 2.5617564 0
-0.9594335 -5.3986039 2.5719697 0
-0.97461385 -5.387548 2.5810335 0
-0.99574 -5.4006076 2.595118 0
-1.0156299 -5.4081464 2.6081324 0
-1.0313238 -5.39888 2.6176147 0
-1.0487511 -5.396359 2.628546 0
-1.0663382 -5.3943186 2.6396036 0
-1.0860389 -5.4000053 2.6524022 0
-1.0994718 -5.3823495 2.6600156 0
-1.1265018 -5.4140973 2.6788139 0
-1.1400744 -5.3968511 2.6865368 0
-1.1585007 -5.3969102 2.6982358 0
-1.1771588 -5.3975673 2.7101126 0
-1.1986642 -5.4076915 2.7242861 0
-1.2152483 -5.4008126 2.734457 0
-1.2329372 -5.3975759 2.7455173 0
-1.2528551 -5.4014955 2.7583623 0
-1.2700759 -5.3964238 2.7690306 0
-1.2895119 -5.3983145 2.7814651 0
-1.3111386 -5.4068074 2.7956314 0
-1.3274288 -5.3983765 2.8055351 0
-1.3472552 -5.4007435 2.8182421 0
-1.3673809 -5.403739 2.831171 0
-1.3851786 -5.3995342 2.8422503 0
-1.4050829 -5.4014039 2.8549809 0
-1.424327 -5.4011045 2.8671803 0
-1.4444106 -5.4030008 2.8800259 0
-1.4647959 -5.4054894 2.8930936 0
-1.4843533 -5.4053955 2.9055026 0
2.8083787 -1.096808 0.0021504164 0
2.815407 -1.1110116 -0.0014562607 0
2.8136485 -1.1248567 0.00035429001 0
2.8202629 -1.1391401 -0.0029922724 0
2.8187299 -1.1530097 -0.0013201237 0
2.8153524 -1.1667475 0.0014861822 0
2.8242102 -1.1813062 -0.0032337904 0
2.8172719 -1.194778 0.0017615557 0
2.8158846 -1.2086267 0.0033425093 0
2.8318455 -1.2239424 -0.0057321787 0
2.8205733 -1.2369703 0.0019209385 0
2.8266592 -1.251544 -0.001083374 0
2.8261979 -1.2655287 -6.8068504e-05 0
2.8397651 -1.2809982 -0.0076538324 0
2.8303134 -1.294064 -0.0011249781 0
2.8280125 -1.3078706 0.001019001 0
2.8288212 -1.3220384 0.0012580156 0
2.8361311 -1.337045 -0.0024807453 0
2.8363414 -1.3512034 -0.0018721819 0
2.8380153 -1.3655747 -0.0021576881 0
2.8359208 -1.3794398 -0.0001386404 0
2.84338 -1.3946991 -0.0039565563 0
2.8335814 -1.4074218 0.0027688742 0
2.8341274 -1.4216832 0.0031756163 0
2.8467617 -1.4379282 -0.0037927628 0
2.8401754 -1.4510949 0.00096905231 0
2.8438447 -1.4659805 -0.00052416325 0
2.8397923 -1.4795437 0.0026906729 0
2.8475072 -1.4952378 -0.0012630224 0
2.846555 -1.5093942 6.4849854e-05 0
2.8434558 -1.5231411 0.0026994944 0
2.8445501 -1.5377076 0.0027827024 0
2.8542819 -1.5540676 -0.0023840666 0
2.8584867 -1.5693901 -0.0041854382 0
2.8596487 -1.5841229 -0.0041356087 0
2.8551719 -1.5976466 -0.00066041946 0
2.8548625 -1.6120822 0.00028443336 0
2.8615086 -1.628139 -0.0029890537 0
2.8577745 -1.6418397 3.5881996e-05 0
2.8632355 -1.6577398 -0.0025126934 0
2.8583138 -1.6711624 0.0012323856 0
2.8653417 -1.6875634 -0.0022591352 0
2.8610625 -1.7011573 0.0010974407 0
2.8690131 -1.7179389 -0.0029453039 0
2.8649552 -1.7316159 0.00027871132 0
2.8645916 -1.7462838 0.0012692213 0
2.8718429 -1.7630942 -0.0023393631 0
2.8672986 -1.7766628 0.0011798143 0
2.8696589 -1.7922065 0.00053071976 0
2.8774755 -1.8094106 -0.0034068823 0
2.8769264 -1.8242195 -0.002294302 0
2.8719523 -1.8377018 0.0014861822 0
2.8820453 -1.855842 -0.0038107634 0
2.8776641 -1.8695471 -0.00038528442 0
2.8773541 -1.8845457 0.00058925152 0
2.8819001 -1.9011612 -0.0013560057 0
2.8908927 -1.9193376 -0.0059703588 0
2.8901825 -1.9343679 -0.0047466755 0
2.8886378 -1.9491388 -0.0030202866 0
2.8858075 -1.9634795 -0.0005210638 0
2.8909338 -1.9806449 -0.0027964115 0
2.8889899 -1.9953597 -0.00082600117 0
2.8920562 -2.0119207 -0.0018588305 0
2.8888469 -2.0262268 0.00087320805 0
2.8925896 -2.0431535 -0.00055885315 0
2.8915529 -2.0583355 0.00087487698 0
2.8945413 -2.0751071 -9.8466873e-05 0
2.9008319 -2.0932527 -0.0030431747 0
2.8974619 -2.107657 -0.00020670891 0
2.9022448 -2.1253648 -0.0022414923 0
2.9013603 -2.140846 -0.00088632107 0
2.9110353 -2.1607528 -0.0058327913 0
2.9047699 -2.1740954 -0.001260519 0
2.9083447 -2.1916173 -0.0025576353 0
2.906589 -2.206919 -0.00067293644 0
2.9151824 -2.226789 -0.0049520731 0
2.9079623 -2.239778 0.00019228458 0
2.9126232 -2.2580829 -0.0017358065 0
2.9119422 -2.274056 -0.00048089027 0
2.9095554 -2.2892847 0.0017904043 0
2.918268 -2.3097291 -0.0025324821 0
2.9150758 -2.3246918 0.00022304058 0
2.9166722 -2.3419664 0.00013697147 0
2.9260733 -2.3631022 -0.0045758486 0
2.9183881 -2.3760126 0.00085198879 0
2.9285986 -2.3977852 -0.0043281317 0
2.9161386 -2.4083323 0.0039303303 0
2.9262345 -2.4302716 -0.0011703968 0
2.924741 -2.4464226 0.00059640408 0
2.9237468 -2.4628768 0.0020701885 0
2.9310231 -2.4837401 -0.0013422966 0
2.9371388 -2.5041349 -0.0040612221 0
2.9325426 -2.5188935 -0.0004478693 0
2.9372747 -2.5387471 -0.0023391247 0
2.9369576 -2.5559404 -0.0012457371 0
2.9355311 -2.5725789 0.00050485134 0
2.9407609 -2.5930202 -0.0016635656 0
2.9433563 -2.6120942 -0.0022735596 0
2.9465442 -2.6316123 -0.0032272339 0
2.9445124 -2.6482029 -0.0011045933 0
2.9486289 -2.6684589 -0.0025939941 0
2.9475155 -2.6857305 -0.0010038614 0
2.9504261 -2.7054822 -0.0017738342 0
2.9531088 -2.7252088 -0.0024038553 0
2.9462328 -2.7391784 0.0025788546 0
2.9542091 -2.7623529 -0.0011461973 0
2.9488535 -2.7773535 0.0029498339 0
2.9589016 -2.8021212 -0.0019737482 0
2.9483309 -2.8139112 0.0051808357 0
2.9644587 -2.8429008 -0.0032833815 0
2.9731827 -2.8673546 -0.0074042082 0
2.9694114 -2.88377 -0.004214406 0
2.9703026 -2.9033294 -0.0037449598 0
2.9637389 -2.9179757 0.0010797977 0
2.9694309 -2.9409513 -0.0012426376 0
2.9738767 -2.9632404 -0.0028295517 0
2.9665375 -2.9775188 0.0024558306 0
2.9743149 -3.0023687 -0.0010586977 0
2.975301 -3.0226228 -0.00061178207 0
2.9783676 -3.0444739 -0.0013685226 0
2.9758911 -3.0624747 0.0011028051 0
2.9803441 -3.0855813 -0.00044596195 0
2.9841244 -3.1083586 -0.001595974 0
2.9792244 -3.1248624 0.002296567 0
2.9902728 -3.1533315 -0.0030524731 0
2.9968441 -3.1786845 -0.0057946444 0
2.9935479 -3.196722 -0.0028142929 0
2.9873166 -3.2125657 0.0018672943 0
2.9932575 -3.2378845 -0.00048661232 0
2.9953434 -3.2603819 -0.00060284138 0
2.9939113 -3.2802463 0.0013196468 0
2.9924788 -3.3002074 0.0032474995 0
3.0033164 -3.3301506 -0.0018942356 0
3.0000336 -3.3488996 0.0011149645 0
3.0069246 -3.3760691 -0.0017300844 0
3.0149019 -3.4043672 -0.0051882267 0
3.0114741 -3.4233892 -0.0020750761 0
3.0123839 -3.4461455 -0.0014505386 0
3.0149467 -3.4704542 -0.0017672777 0
3.0170376 -3.4945326 -0.0018041134 0
3.0168111 -3.5167747 -0.00050330162 0
3.0178595 -3.540266 7.4148178e-05 0
3.0307679 -3.5743668 -0.0061317682 0
1.2029202 -1.9723403 1.0410175 0
1.18312 -1.9632835 1.0527937 0
1.1777508 -1.9670265 1.0563105 0
1.1588118 -1.9583524 1.067574 0
1.1497415 -1.9585184 1.0731938 0
1.1471936 -1.9646531 1.0750902 0
1.1399169 -1.9663718 1.0796814 0
1.1300342 -1.9655654 1.085753 0
1.1213335 -1.965781 1.0911467 0
1.1132051 -1.9664609 1.0962107 0
1.0976095 -1.9598184 1.1055119 0
1.0974067 -1.9680375 1.1060662 0
1.0750135 -1.9544063 1.1192079 0
1.0741001 -1.961841 1.1201608 0
1.0613271 -1.9574084 1.1278312 0
1.0569484 -1.9613194 1.130744 0
1.0505531 -1.9631543 1.1347961 0
1.0371178 -1.9576828 1.142822 0
1.033112 -1.9618373 1.1455169 0
1.0296403 -1.9665427 1.1479101 0
1.0303746 -1.9756966 1.1479335 0
1.0255569 -1.9790066 1.1510867 0
1.0286014 -1.9907508 1.149816 0
1.0304 -2.0012655 1.1492522 0
1.0295359 -2.0089676 1.1501887 0
1.1741406 -2.1772501 1.0695148 0
1.1752205 -2.1885951 1.0694386 0
1.1746073 -2.1981416 1.0703162 0
1.1732764 -2.2069476 1.071599 0
1.1661673 -2.2092152 1.0761153 0
1.1738428 -2.2284548 1.072371 0
1.1713748 -2.2361524 1.0742995 0
1.1747947 -2.2507865 1.0729475 0
1.1779895 -2.2653134 1.0717293 0
1.1695993 -2.2661958 1.0769657 0
1.1670024 -2.2739625 1.0789775 0
1.1688398 -2.2871442 1.0785286 0
1.1739317 -2.3044379 1.0762812 0
1.1703912 -2.3112967 1.0788294 0
1.1672118 -2.3186302 1.0811789 0
1.1671021 -2.3298473 1.0818322 0
1.1673993 -2.3416798 1.0822659 0
1.1667943 -2.352474 1.0832034 0
1.1730579 -2.3721972 1.0803578 0
1.170769 -2.381073 1.082237 0
1.1684391 -2.3899565 1.084142 0
1.1640584 -2.3961949 1.0871775 0
1.1715761 -2.4182866 1.0836797 0
1.1664909 -2.423749 1.0871106 0
1.1657405 -2.4350836 1.0881665 0
1.1637132 -2.4447792 1.0899265 0
1.1669056 -2.4617414 1.0888367 0
1.1663646 -2.4737184 1.0897965 0
1.1661705 -2.4862983 1.0905731 0
1.1627768 -2.4944823 1.0930995 0
1.163425 -2.5084801 1.0934291 0
1.1619598 -2.5195906 1.0949153 0
1.1701556 -2.5448208 1.0911617 0
1.1671576 -2.5540171 1.0934963 0
1.1633902 -2.5621464 1.0962512 0
1.1706321 -2.5867236 1.0930537 0
1.1677097 -2.5963681 1.0953649 0
1.1617512 -2.6014879 1.0993183 0
1.1621985 -2.6164012 1.0998197 0
1.1626427 -2.6314812 1.1003319 0
1.1678485 -2.6541471 1.0982943 0
1.1644764 -2.6636536 1.1008765 0
1.1622595 -2.6750665 1.1028435 0
1.1660976 -2.696269 1.1015756 0
1.1673719 -2.7136228 1.1016929 0
1.1607471 -2.7183402 1.1060374 0
1.1628814 -2.737431 1.1057134 0
1.1605119 -2.749311 1.1077992 0
1.1608787 -2.765887 1.1084373 0
1.1605303 -2.7814636 1.1094656 0
1.1634097 -2.8027253 1.108794 0
1.162631 -2.817996 1.1100726 0
1.1585102 -2.827657 1.1131259 0
1.1592423 -2.8458929 1.1136247 0
1.1611134 -2.8663826 1.1135365 0
1.1576704 -2.8776836 1.1162561 0
1.1573515 -2.8947201 1.1173425 0
1.1585222 -2.9146843 1.11766 0
1.1614571 -2.9381614 1.1170697 0
1.1558735 -2.9462202 1.1209444 0
1.1554761 -2.9640222 1.1221192 0
1.1591276 -2.989701 1.1212003 0
1.1606292 -3.0116792 1.1214185 0
1.1553409 -3.0209291 1.1251726 0
1.1546595 -3.0391989 1.1265476 0
1.1540481 -3.0578611 1.1278996 0
1.1522967 -3.0745306 1.129853 0
1.1558839 -3.1020937 1.1290723 0
1.1560681 -3.1232314 1.1300614 0
1.1545535 -3.1412246 1.1319373 0
1.1564711 -3.1665363 1.132072 0
1.1501153 -3.1750555 1.1364485 0
1.1330807 -3.1612234 1.1462647 0
1.1279759 -3.1723075 1.150001 0
1.1327056 -3.2045834 1.1487595 0
3.4092307 -8.1536522 -0.0012849569 0
3.420795 -8.2524824 -0.0032812357 0
3.4278703 -8.3431091 -0.002928853 0
3.432281 -8.4293385 -0.0011575222 0
3.4436986 -8.5328369 -0.0028196573 0
3.4491637 -8.624609 -0.0014113188 0
3.4590123 -8.7280769 -0.0021041632 0
3.4713218 -8.8391342 -0.0039237738 0
3.478806 -8.9408741 -0.0032442808 0
3.4870794 -9.046339 -0.002858758 0
3.4963973 -9.156251 -0.0028868914 0
3.5023544 -9.2600451 -0.0011557341 0
3.5196388 -9.3935947 -0.0048788786 0
3.5254025 -9.5011282 -0.0028327703 0
3.5341029 -9.6180773 -0.0021119118 0
3.5432987 -9.7385445 -0.0015138388 0
3.5533569 -9.8635912 -0.0012105703 0
1.4934542 -5.3947177 1.0398853 0
1.479587 -5.4088869 1.0492032 0
1.4586676 -5.4003835 1.0617006 0
1.4402839 -5.3998103 1.0730433 0
1.420843 -5.3955255 1.0848464 0
1.4035828 -5.398315 1.0956696 0
1.3847204 -5.3955193 1.1071924 0
1.3672109 -5.3971734 1.1181107 0
1.3512422 -5.4041352 1.1283526 0
1.3317779 -5.3986263 1.140106 0
1.316681 -5.4086337 1.1499677 0
1.2953722 -5.3958893 1.1624848 0
1.2794124 -5.4025893 1.1727076 0
1.2590181 -5.3924937 1.1847972 0
1.2441536 -5.4032335 1.1945531 0
1.2265354 -5.4033604 1.2054589 0
1.2113949 -5.413178 1.2153375 0
1.1919661 -5.4058151 1.2269725 0
1.1715463 -5.3939776 1.2389867 0
1.1570213 -5.4061913 1.2486098 0
1.1368886 -5.3948474 1.2604723 0
1.1199707 -5.3968325 1.2710418 0
1.103882 -5.4023643 1.2812834 0
1.0875782 -5.4069691 1.2916095 0
1.0702448 -5.4068913 1.3023283 0
1.0529575 -5.4068608 1.3130212 0
1.0365067 -5.410615 1.3233939 0
1.015044 -5.3902678 1.3356094 0
0.9992044 -5.3965178 1.3457344 0
0.98419672 -5.4070048 1.3555658 0
0.96695364 -5.4063697 1.3661995 0
0.94853866 -5.3994656 1.3772314 0
0.93049932 -5.3941126 1.3881116 0
0.91446358 -5.3992205 1.3982981 0
0.89935589 -5.4095135 1.4081813 0
0.87937766 -5.3926101 1.4196582 0
0.8647812 -5.4058499 1.4293789 0
0.8489756 -5.4124017 1.4394985 0
0.83008498 -5.4004836 1.4505628 0
0.81295502 -5.3987274 1.4610682 0
0.7963022 -5.3997536 1.4714236 0
0.77984995 -5.4019809 1.4817176 0
0.76189423 -5.3941803 1.4924183 0
0.74512959 -5.3939447 1.5027771 0
0.73013967 -5.405973 1.5126779 0
0.71262723 -5.4003692 1.5232191 0
0.69526893 -5.3954444 1.5337005 0
0.68003833 -5.4062734 1.5436876 0
0.66235191 -5.3983665 1.5542161 0
0.64570397 -5.3982148 1.5645071 0
0.62912548 -5.3984876 1.5747772 0
0.61279029 -5.4007273 1.5849994 0
0.59608674 -5.3997092 1.5952796 0
0.57904959 -5.3954134 1.605595 0
0.56263292 -5.396575 1.6158113 0
0.54612666 -5.3968019 1.6260344 0
0.5299257 -5.4000378 1.6362256 0
0.51262224 -5.3916531 1.6464924 0
0.49637806 -5.3941917 1.6566739 0
0.48065239 -5.402823 1.6668526 0
0.46406478 -5.4016762 1.6770543 0
0.44806695 -5.407774 1.6872692 0
0.43063891 -5.3953214 1.6974007 0
0.41492212 -5.4053969 1.7076494 0
0.39868486 -5.4087772 1.7178705 0
0.38114864 -5.3921347 1.7278503 0
0.3648147 -5.3932686 1.7380141 0
0.34884095 -5.4008155 1.7482897 0
0.33258665 -5.4040074 1.7585115 0
0.31592602 -5.3993044 1.7685728 0
0.29957998 -5.4006691 1.7787561 0
0.28313187 -5.3997493 1.7888833 0
0.26681691 -5.4020662 1.7990971 0
0.25027663 -5.3982277 1.809129 0
0.23386179 -5.3975062 1.8192461 0
0.21753916 -5.3999867 1.829473 0
0.20120007 -5.4025278 1.8397133 0
0.18468182 -5.3967772 1.8496319 0
0.16829489 -5.3967462 1.8597677 0
0.15190935 -5.3969221 1.8699133 0
0.13557351 -5.4036388 1.8803697 0
0.11913907 -5.3998823 1.8903403 0
0.10272842 -5.394743 1.9002242 0
0.086305857 -5.4050322 1.9109205 0
0.069986999 -5.3878593 1.9201196 0
0.053487279 -5.3997431 1.9309468 0
0.036978796 -5.4055977 1.941465 0
0.020646386 -5.398829 1.9512154 0
0.0042158589 -5.3986063 1.9613681 0
-0.012593679 -5.4130912 1.9725227 0
-0.028685734 -5.3989053 1.9817374 0
-0.04532741 -5.404429 1.9923207 0
-0.061738878 -5.4022694 2.0023606 0
-0.078103468 -5.399096 2.0123184 0
-0.094551086 -5.3981013 2.0224414 0
-0.11122419 -5.401742 2.0329459 0
-0.12746213 -5.3961763 2.0427005 0
-0.14377925 -5.3925676 2.0526063 0
-0.16060816 -5.3978591 2.0632935 0
-0.17707635 -5.3965449 2.0734124 0
-0.19349037 -5.394352 2.083452 0
-0.21089907 -5.4063201 2.094846 0
-0.2271515 -5.4012504 2.1046357 0
-0.24461259 -5.4119811 2.1159976 0
-0.2606287 -5.4038072 2.125479 0
-0.27721107 -5.4027767 2.1356835 0
-0.29375952 -5.4012437 2.1458406 0
-0.30965471 -5.3926015 2.1552229 0
-0.32679051 -5.3972511 2.1660662 0
-0.3446607 -5.4086428 2.1777155 0
-0.36072004 -5.4016542 2.1872857 0
-0.37674361 -5.3946238 2.1968312 0
-0.39469075 -5.405046 2.2084777 0
-0.41111052 -5.4013906 2.2184446 0
-0.42834896 -5.4046106 2.2292769 0
-0.44412267 -5.3955655 2.2385628 0
-0.46188611 -5.4024978 2.2499135 0
-0.47848642 -5.3999543 2.2600501 0
-0.49614543 -5.4051967 2.2712479 0
-0.51295203 -5.4038129 2.2815728 0
-0.53029531 -5.4060674 2.2924194 0
-0.54619485 -5.3981524 2.3018422 0
-0.56290466 -5.395834 2.3120584 0
-0.57942593 -5.3922124 2.3220897 0
-0.59794575 -5.401207 2.3340158 0
-0.61470312 -5.3986979 2.3442516 0
-0.63140005 -5.3957453 2.3544266 0
-0.65083784 -5.408864 2.367136 0
-0.66684479 -5.4014559 2.3766518 0
-0.68452418 -5.4035888 2.3877001 0
-0.7008754 -5.3981204 2.3975298 0
-0.71825731 -5.398241 2.408289 0
-0.73577303 -5.3988662 2.4191573 0
-0.75366271 -5.4012027 2.4303463 0
-0.77155316 -5.4032512 2.4415207 0
-0.78969461 -5.4062686 2.4529009 0
-0.80655873 -5.4027534 2.46315 0
-0.82239139 -5.3942461 2.4725003 0
-0.84234869 -5.4051914 2.4854178 0
-0.85829318 -5.397078 2.4948578 0
-0.87613875 -5.3976469 2.5059273 0
-0.89384717 -5.3973894 2.5168688 0
-0.91278738 -5.4023104 2.5288424 0
-0.93063933 -5.4022026 2.5398805 0
-0.94841808 -5.4015913 2.5508471 0
-0.96683699 -5.403451 2.5623384 0
-0.98471147 -5.402832 2.5733638 0
-1.0023236 -5.4009867 2.5841627 0
-1.0224886 -5.4090514 2.5970583 0
-1.0374084 -5.396338 2.6056247 0
-1.0569119 -5.4013023 2.617949 0
-1.0745665 -5.3989711 2.6287489 0
-1.0927866 -5.3986001 2.6400008 0
-1.1093627 -5.3920555 2.6499138 0
-1.1295104 -5.3983111 2.662704 0
-1.1501118 -5.4057813 2.6758385 0
-1.1667422 -5.3990068 2.6857729 0
-1.1844063 -5.3957725 2.6965315 0
-1.2027755 -5.3948112 2.707845 0
-1.2205558 -5.3917112 2.7186828 0
-1.2397522 -5.393146 2.7306328 0
-1.2589324 -5.3942842 2.7425575 0
-1.279448 -5.3994541 2.7555189 0
-1.2994283 -5.4025908 2.768043 0
-1.3163581 -5.3959465 2.7781694 0
-1.3368251 -5.4001269 2.791049 0
-1.354792 -5.3964186 2.80197 0
-1.3732725 -5.3941331 2.8132834 0
-1.3944186 -5.3995633 2.8266482 0
-1.4146641 -5.4020219 2.8393011 0
-1.4313225 -5.3938913 2.8491821 0
-1.4504142 -5.3926644 2.8609285 0
-1.4713717 -5.3964877 2.8740928 0
-1.4928708 -5.401505 2.8876548 0
2.9006751 -1.0973159 -0.0037049055 0
2.9031568 -1.1116747 -0.0044512749 0
2.8923037 -1.1254219 0.0027742386 0
2.8977993 -1.139926 0.00022625923 0
2.8941004 -1.1539547 0.003172636 0
2.8999653 -1.1685529 0.0004080534 0
2.901963 -1.18295 -4.5776367e-05 0
2.9092162 -1.1977566 -0.0036329031 0
2.905371 -1.2117716 -0.00059950352 0
2.9058571 -1.2261142 -0.0001488924 0
2.9060633 -1.2404425 0.00046896935 0
2.9100373 -1.2551322 -0.0011558533 0
2.9067588 -1.2691526 0.001537323 0
2.9039886 -1.2831997 0.0039271116 0
2.911046 -1.2982976 0.00047266483 0
2.9175198 -1.31341 -0.0026305914 0
2.9173675 -1.3278069 -0.0017940998 0
2.9105647 -1.3413849 0.0029916763 0
2.9168963 -1.356604 -2.0980835e-05 0
2.9162867 -1.3709643 0.0010882616 0
2.9177387 -1.3856175 0.00097513199 0
2.9178247 -1.4000996 0.0016731024 0
2.9230914 -1.4153723 -0.00069737434 0
2.9221931 -1.4297553 0.00058615208 0
2.9223449 -1.4443111 0.0012484789 0
2.9247496 -1.4592557 0.00057852268 0
2.9300396 -1.4747317 -0.0017952919 0
2.9241765 -1.4883171 0.0024266243 0
2.9337466 -1.5046504 -0.0024718046 0
2.9286342 -1.5183665 0.0013065338 0
2.9303796 -1.5333586 0.0010348558 0
2.9361691 -1.549181 -0.0016210079 0
2.9306719 -1.5628055 0.0023834705 0
2.9405439 -1.5795714 -0.0026737452 0
2.9371526 -1.5936468 9.0122223e-05 0
2.9309816 -1.6071026 0.0044902563 0
2.9403629 -1.6239755 -0.0002669096 0
2.9436426 -1.6395781 -0.0014278889 0
2.9417105 -1.6540227 0.00047945976 0
2.9455364 -1.6698413 -0.00099813938 0
2.9425025 -1.6840532 0.0015583038 0
2.9499691 -1.7008688 -0.0020526648 0
2.949213 -1.7156991 -0.00083148479 0
2.9508131 -1.7311578 -0.00099170208 0
2.9525881 -1.7467051 -0.0012522936 0
2.9567573 -1.7629439 -0.0029141903 0
2.9525094 -1.7769375 0.00035977364 0
2.9584677 -1.793777 -0.0023448467 0
2.9587417 -1.8090835 -0.0017172098 0
2.9527841 -1.8226076 0.0025584698 0
2.9574907 -1.8392599 0.00059556961 0
2.9586911 -1.8549347 0.00068640709 0
2.963563 -1.8717821 -0.0013656616 0
2.9723697 -1.8899432 -0.0057114363 0
2.9640768 -1.9027942 -6.9022179e-05 0
2.9701626 -1.9202392 -0.0028189421 0
2.9710746 -1.9360828 -0.0025461912 0
2.9641883 -1.9493647 0.0022742748 0
2.969533 -1.9667616 -3.2901764e-05 0
2.973192 -1.9836713 -0.0013538599 0
2.9740362 -1.9996711 -0.0010325909 0
2.9712074 -2.0144105 0.0014281273 0
2.9777226 -2.0325346 -0.0015441179 0
2.9755905 -2.0475965 0.00051498413 0
2.9832385 -2.0663185 -0.003105998 0
2.9916546 -2.0854561 -0.0071668625 0
2.9842546 -2.0986605 -0.0020421743 0
2.9809837 -2.1134324 0.00068557262 0
2.9870636 -2.1319032 -0.0020076036 0
2.9859357 -2.1475992 -0.00051820278 0
2.9905229 -2.1656487 -0.0023372173 0
2.9935467 -2.1831508 -0.0032463074 0
2.9855306 -2.1961279 0.0022364855 0
2.9864807 -2.2128532 0.0025320053 0
2.9964311 -2.2334952 -0.0023719072 0
3.0052745 -2.2538183 -0.0066276789 0
2.9937117 -2.2653136 0.00090718269 0
2.9904599 -2.280432 0.0036414862 0
2.995553 -2.2993321 0.0015628338 0
3.0017278 -2.3188381 -0.0011336803 0
2.9932218 -2.3316712 0.0046358109 0
3.0045235 -2.3537469 -0.0010048151 0
3.0087073 -2.3726304 -0.002538681 0
3.0046985 -2.3876832 0.00064659119 0
3.01789 -2.4111109 -0.0060583353 0
3.0008664 -2.4198804 0.0046130419 0
3.0068262 -2.4399562 0.0020750761 0
3.0129983 -2.4602695 -0.00057816505 0
3.0103273 -2.4762082 0.0018498898 0
3.0108676 -2.4938338 0.00243783 0
3.0152991 -2.5135603 0.00079929829 0
3.0249052 -2.536135 -0.003798008 0
3.0170815 -2.5495858 0.0015939474 0
3.0252502 -2.5716434 -0.0021673441 0
3.02895 -2.5914276 -0.0033637285 0
3.0211961 -2.6050019 0.0019925833 0
3.0320446 -2.6289358 -0.0032799244 0
3.0302243 -2.6459241 -0.0013080835 0
3.0301282 -2.6639457 -0.00031769276 0
3.0385845 -2.6869726 -0.0042011738 0
3.0329554 -2.7019668 -4.6610832e-05 0
3.0384352 -2.7235131 -0.0022205114 0
3.041116 -2.7435379 -0.0027930737 0
3.0467348 -2.7654424 -0.0050315857 0
3.0418954 -2.7811384 -0.0013147593 0
3.0466151 -2.8027267 -0.0030301809 0
3.0480952 -2.8224463 -0.0028977394 0
3.0505018 -2.8428497 -0.0032861233 0
3.0460362 -2.8590145 0.00023066998 0
3.0502424 -2.8807576 -0.0011686087 0
3.0516708 -2.9008474 -0.00098598003 0
3.0523779 -2.9205732 -0.00038945675 0
3.0573449 -2.9432089 -0.002199173 0
3.0637386 -2.9669518 -0.0048075914 0
3.0537529 -2.9798508 0.0018532276 0
3.0566497 -3.0014658 0.0012334585 0
3.0627487 -3.0254135 -0.0011878014 0
3.0644841 -3.0465169 -0.0011371374 0
3.0626626 -3.065253 0.00092577934 0
3.0694499 -3.090148 -0.0018591881 0
3.0648675 -3.107127 0.0017697811 0
3.0696166 -3.130868 0.00014829636 0
3.0718198 -3.1529284 -3.2305717e-05 0
3.0755777 -3.1762676 -0.0010797977 0
3.0799203 -3.2002015 -0.0024474859 0
3.0812292 -3.2220373 -0.0021028519 0
3.0838242 -3.2449758 -0.0024732351 0
3.0785646 -3.2620788 0.0015687943 0
3.0842538 -3.2876456 -0.00052249432 0
3.0878069 -3.3117521 -0.0014073849 0
3.092958 -3.3372824 -0.0031775236 0
3.0945601 -3.3602023 -0.0029529333 0
3.0944319 -3.3818884 -0.0017536879 0
3.0963647 -3.4053586 -0.0016989708 0
3.0996366 -3.4300725 -0.0023835897 0
3.1027288 -3.4548178 -0.0029587746 0
3.1004791 -3.4753206 -0.00054717064 0
3.1018724 -3.4989657 -0.00015974045 0
3.1110814 -3.5293527 -0.0041142702 0
3.1126704 -3.55354 -0.0038161278 0
3.109863 -3.5741212 -0.0010658503 0
3.107389 -3.5950906 0.001504302 0
3.1151931 -3.6251419 -0.0016243458 0
3.1146371 -3.6480968 -0.00010240078 0
1.1967411 -1.9671423 1.0640028 0
1.1853583 -1.9655777 1.0707536 0
1.1691176 -1.9594946 1.0801864 0
1.1657666 -1.9649713 1.082481 0
1.1614867 -1.9695957 1.0852891 0
1.1475003 -1.9651945 1.0934558 0
1.1418291 -1.9684134 1.0970262 0
1.1271293 -1.9630653 1.1055722 0
1.1231116 -1.9677161 1.1082243 0
1.1138319 -1.9672995 1.1137723 0
1.1015468 -1.9638723 1.1209683 0
1.0984179 -1.9692559 1.1231248 0
1.0876472 -1.9671054 1.1294781 0
1.0771003 -1.9650548 1.1357021 0
1.0769598 -1.9733318 1.1362149 0
1.0602589 -1.9648981 1.1458021 0
1.0487152 -1.9615028 1.1525548 0
1.056957 -1.9783497 1.1484802 0
1.0520773 -1.9817716 1.1515861 0
1.0589275 -1.9974637 1.1482866 0
1.0607636 -2.0080445 1.1477323 0
1.1702251 -2.1334608 1.0885255 0
1.1758673 -2.1493196 1.0859599 0
1.1756593 -2.1590154 1.0865867 0
1.1731358 -2.1662536 1.0884759 0
1.1702927 -2.1731725 1.0905404 0
1.1709119 -2.1839705 1.0907276 0
1.1746694 -2.1983838 1.0892184 0
1.1705981 -2.2040939 1.0919574 0
1.1690882 -2.2127342 1.0933108 0
1.1688064 -2.2228456 1.0940033 0
1.1673807 -2.2317109 1.0953178 0
1.1700578 -2.2454417 1.0944219 0
1.1737484 -2.2605138 1.0929868 0
1.1708171 -2.2678671 1.0951267 0
1.1739997 -2.282599 1.093979 0
1.1718098 -2.2909842 1.0957274 0
1.1759189 -2.3071179 1.0940962 0
1.1701366 -2.3112495 1.0977805 0
1.1697831 -2.3221078 1.0985546 0
1.1664004 -2.3292649 1.1009552 0
1.1736687 -2.3499184 1.0976619 0
1.1720614 -2.35952 1.0991235 0
1.1686112 -2.3668256 1.1015725 0
1.1703628 -2.3809133 1.1012503 0
1.1685925 -2.3905454 1.1028115 0
1.1629969 -2.3952057 1.106411 0
1.16397 -2.4085975 1.1065201 0
1.1663795 -2.4240575 1.1058741 0
1.1673934 -2.4378054 1.1059771 0
1.1655177 -2.4477546 1.1076179 0
1.1637605 -2.4579484 1.1092 0
1.1647818 -2.4720886 1.109319 0
1.1686294 -2.490345 1.1079545 0
1.1654663 -2.4989173 1.1102967 0
1.166337 -2.5132999 1.1105185 0
1.1661636 -2.5263405 1.1112976 0
1.164162 -2.5368657 1.1130435 0
1.1655328 -2.5524199 1.1130259 0
1.1614875 -2.5601583 1.1158544 0
1.1645991 -2.5786018 1.1149414 0
1.1681603 -2.5979545 1.1138057 0
1.163385 -2.6049199 1.1170322 0
1.1607822 -2.6152387 1.1191285 0
1.1609199 -2.6298769 1.1198035 0
1.161971 -2.6461053 1.1200126 0
1.1629455 -2.662411 1.1202716 0
1.1600221 -2.6727388 1.1225607 0
1.1582297 -2.6849673 1.1242695 0
1.1612554 -2.7050955 1.1234952 0
1.1639462 -2.7249496 1.1229079 0
1.1599795 -2.7341332 1.1257639 0
1.1594608 -2.7491052 1.1268501 0
1.1623118 -2.7698922 1.1262149 0
1.1638112 -2.7886834 1.1262876 0
1.1610167 -2.8004103 1.1285717 0
1.1652912 -2.8244102 1.1272484 0
1.1571885 -2.8272839 1.1322603 0
1.1629981 -2.8544765 1.1301808 0
1.1593465 -2.8653579 1.1329356 0
1.1626068 -2.8886762 1.1321857 0
1.1580493 -2.8982582 1.135417 0
1.1548792 -2.9104457 1.1379505 0
1.1579285 -2.9341774 1.1373487 0
1.157009 -2.950912 1.1387665 0
1.1563374 -2.9683309 1.1400712 0
1.1590025 -2.9922843 1.1397114 0
1.1547145 -3.0033481 1.1428578 0
1.1561509 -3.0255425 1.1431442 0
1.1543864 -3.0418496 1.1450473 0
1.15882 -3.0705349 1.1438709 0
1.1555971 -3.0845134 1.146529 0
1.1561701 -3.1062613 1.1473105 0
1.154327 -3.1234565 1.1493068 0
1.1564615 -3.149009 1.1493481 0
1.1636606 -3.1854088 1.1469111 0
1.1632273 -3.2065496 1.1482655 0
3.5129459 -8.1696358 -0.0051429272 0
3.5181034 -8.2535086 -0.0038973093 0
3.5197732 -8.331274 -0.00087475777 0
3.5346456 -8.438921 -0.0042295456 0
3.5412931 -8.5304394 -0.0034825802 0
3.55304 -8.6348028 -0.0051313639 0
3.5633705 -8.7378359 -0.0059992075 0
3.567153 -8.8278933 -0.0036082268 0
3.5799732 -8.9401464 -0.0054930449 0
3.5887651 -9.0451403 -0.0053356886 0
3.5946636 -9.1452789 -0.0036928654 0
3.6062567 -9.2606506 -0.0046796799 0
3.6162865 -9.3744373 -0.0048100948 0
3.6264498 -9.4906721 -0.0048941374 0
3.6376147 -9.6115398 -0.0053395033 0
3.6481681 -9.7332106 -0.005376339 0
3.6563106 -9.8512192 -0.0041553974 0
3.6713314 -9.9888315 -0.0060483217 0
1.4855078 -5.3923845 1.0679675 0
1.4684112 -5.3965387 1.0784438 0
1.4524196 -5.4042339 1.0884401 0
1.4300938 -5.3910284 1.1011564 0
1.412469 -5.3930349 1.1118385 0
1.3967319 -5.4013405 1.1217138 0
1.3794847 -5.4045038 1.132229 0
1.360932 -5.4030199 1.1432874 0
1.3422502 -5.4008646 1.1543884 0
1.3252791 -5.4046307 1.1647694 0
1.3067296 -5.4025717 1.1757962 0
1.2877382 -5.3986444 1.1869912 0
1.2705622 -5.4012594 1.1974356 0
1.2523057 -5.3996592 1.2083101 0
1.2352543 -5.4025183 1.2186922 0
1.2140189 -5.3887968 1.2307274 0
1.1975784 -5.3936834 1.2408477 0
1.1825815 -5.4044447 1.2504058 0
1.1635635 -5.3987455 1.2615253 0
1.1447116 -5.3933907 1.2725627 0
1.1270055 -5.3925943 1.2831488 0
1.1111349 -5.3996029 1.2930368 0
1.0930511 -5.3968868 1.30375 0
1.0773082 -5.4044704 1.3135912 0
1.0599605 -5.4047947 1.32402 0
1.0434952 -5.4090986 1.334125 0
1.0248624 -5.4030714 1.3449965 0
1.0069544 -5.4001751 1.3555949 0
0.98822314 -5.392931 1.3664622 0
0.97304696 -5.4031906 1.3761019 0
0.95348316 -5.3911076 1.3872185 0
0.93851274 -5.4025126 1.3967938 0
0.91952437 -5.3926821 1.4076818 0
0.90491551 -5.4062729 1.4171534 0
0.88676554 -5.4004717 1.4277465 0
0.86939722 -5.3987322 1.4380809 0
0.85128897 -5.3924294 1.4486231 0
0.83590305 -5.4019804 1.458352 0
0.81810373 -5.3970404 1.4687793 0
0.80116606 -5.3971176 1.4789491 0
0.78537738 -5.4044361 1.4888041 0
0.76794338 -5.4011278 1.4990966 0
0.75049853 -5.3974218 1.5093751 0
0.73464549 -5.4044247 1.5192524 0
0.71681547 -5.3975563 1.5295984 0
0.70008719 -5.3982353 1.5396737 0
0.6838963 -5.4028625 1.5496309 0
0.66770935 -5.4076481 1.5595938 0
0.64922595 -5.3941965 1.5699912 0
0.63336092 -5.4013748 1.5798848 0
0.61707431 -5.405283 1.5898621 0
0.59998858 -5.4022741 1.5999612 0
0.58352047 -5.404542 1.6099626 0
0.56601572 -5.397047 1.6200808 0
0.54970723 -5.4005661 1.6300513 0
0.53296947 -5.3998594 1.6400605 0
0.51635587 -5.4002705 1.6500531 0
0.49984527 -5.4017162 1.6600375 0
0.48303378 -5.3996992 1.6700232 0
0.46579343 -5.3922195 1.6799836 0
0.44992089 -5.4011087 1.6899704 0
0.4327451 -5.3935471 1.6998878 0
0.41674477 -5.4013968 1.7098973 0
0.39996988 -5.3986397 1.7198226 0
0.38360572 -5.4018116 1.7298086 0
0.36712563 -5.4033518 1.7397795 0
0.34997052 -5.3931322 1.7495469 0
0.33380479 -5.3999567 1.7596027 0
0.3171255 -5.3973293 1.7694775 0
0.30038685 -5.3928728 1.7792932 0
0.28413498 -5.3991432 1.789372 0
0.26778051 -5.4038639 1.7994322 0
0.25090551 -5.3944244 1.8090718 0
0.23455018 -5.3995466 1.8191533 0
0.2182309 -5.407383 1.8293536 0
0.20149955 -5.3999557 1.8390112 0
0.1850161 -5.4024105 1.8490316 0
0.16847396 -5.4023371 1.8589561 0
0.15195169 -5.4039803 1.8689578 0
0.13535698 -5.3985643 1.8786374 0
0.1188582 -5.4060621 1.8889279 0
0.10228989 -5.3987265 1.8984925 0
0.085722081 -5.4079638 1.9089144 0
0.069218032 -5.3970442 1.9182549 0
0.052668698 -5.3976879 1.928221 0
0.035954766 -5.4090853 1.9388424 0
0.019616708 -5.3946238 1.9478999 0
0.0028328598 -5.4052258 1.9585221 0
-0.013758242 -5.4048929 1.9684627 0
-0.030241445 -5.4006777 1.9781377 0
-0.046874896 -5.401701 1.988174 0
-0.063838571 -5.4112072 1.9988475 0
-0.080155313 -5.4027977 2.0082054 0
-0.096660063 -5.3998032 2.0179565 0
-0.11325793 -5.3989725 2.0278752 0
-0.12992248 -5.399312 2.0378947 0
-0.14691244 -5.4052134 2.0483975 0
-0.16328864 -5.3998356 2.0579481 0
-0.1803285 -5.4053488 2.0684605 0
-0.1965719 -5.3981657 2.0778379 0
-0.21321641 -5.3971891 2.0877774 0
-0.23068662 -5.4071474 2.0987782 0
-0.24659978 -5.3961029 2.1077576 0
-0.26393026 -5.4030828 2.1185205 0
-0.28104514 -5.4067335 2.1289816 0
-0.29751575 -5.4027061 2.1386588 0
-0.31311619 -5.3895206 2.1473396 0
-0.33173662 -5.4081078 2.1594772 0
-0.34767687 -5.3986568 2.1685555 0
-0.36514723 -5.404233 2.1793296 0
-0.38110691 -5.3953676 2.1884496 0
-0.39827156 -5.3975735 2.1988659 0
-0.41450655 -5.3914719 2.2082944 0
-0.43275684 -5.4022684 2.2198067 0
-0.45019656 -5.4056845 2.2304506 0
-0.46673453 -5.4016705 2.2401688 0
-0.48422599 -5.4049034 2.2508345 0
-0.50065428 -5.3999386 2.2604375 0
-0.51781815 -5.4003105 2.2707586 0
-0.53493112 -5.4001112 2.2810192 0
-0.55134887 -5.3950205 2.2906096 0
-0.56964469 -5.4023771 2.3019714 0
-0.58578587 -5.395319 2.3112938 0
-0.60463238 -5.4053726 2.3231256 0
-0.62168908 -5.4037952 2.3332813 0
-0.63762712 -5.3954096 2.3424134 0
-0.65552354 -5.3986444 2.353322 0
-0.67334878 -5.4011354 2.3641496 0
-0.69054592 -5.3998146 2.3744025 0
-0.70911884 -5.4058676 2.3858633 0
-0.72545242 -5.3994989 2.3953369 0
-0.74330753 -5.4011621 2.4061396 0
-0.76084054 -5.4009094 2.4166496 0
-0.77877325 -5.4024801 2.427494 0
-0.79795307 -5.4099331 2.4393914 0
-0.81326377 -5.3982153 2.4479742 0
-0.83254743 -5.4055672 2.4599285 0
-0.84858876 -5.397377 2.4691327 0
-0.86650491 -5.3978453 2.4799099 0
-0.88577288 -5.4041557 2.491801 0
-0.9031018 -5.4015121 2.5020649 0
-0.92119968 -5.4020882 2.5129569 0
-0.93805754 -5.3971796 2.5228209 0
-0.95670116 -5.3996964 2.5341411 0
-0.97535956 -5.4019899 2.5454583 0
-0.99528146 -5.4091053 2.5577836 0
-1.0101789 -5.3958464 2.5660386 0
-1.0298504 -5.4014606 2.5781357 0
-1.0487309 -5.403657 2.5895815 0
-1.0686599 -5.4095507 2.6018476 0
-1.086441 -5.4070625 2.612391 0
-1.1007396 -5.3916798 2.6201768 0
-1.1194174 -5.3923769 2.631423 0
-1.1423254 -5.4078979 2.6459756 0
-1.1602145 -5.4051704 2.6565714 0
-1.1785851 -5.4039803 2.6675355 0
-1.1972802 -5.4037285 2.6787434 0
-1.2155591 -5.401885 2.6896186 0
-1.2342225 -5.4011602 2.7007828 0
-1.2553569 -5.408309 2.7138376 0
-1.2711785 -5.3979731 2.7227986 0
-1.2886325 -5.3928909 2.7330112 0
-1.312402 -5.4074974 2.7480335 0
-1.3307498 -5.4047718 2.7589047 0
-1.3491317 -5.4020157 2.7697945 0
-1.3674892 -5.3990526 2.7806592 0
-1.3881239 -5.4027119 2.7932334 0
-1.407571 -5.4025908 2.8048992 0
-1.4249593 -5.3963146 2.8150105 0
-1.4470986 -5.4035435 2.8286729 0
-1.4664441 -5.4025087 2.8402302 0
-1.4868152 -5.4041414 2.8525414 0
2.9859948 -1.0978675 0.00014734268 0
2.9916759 -1.1126678 -0.0023789406 0
2.9869747 -1.1270392 0.0011070967 0
2.9868112 -1.1416008 0.0019654036 0
2.9888201 -1.1562873 0.0015676022 0
2.9891009 -1.17089 0.0021699667 0
3.0108211 -1.1869384 -0.0096138716 0
3.0004823 -1.2008954 -0.0028727055 0
3.0016444 -1.2156411 -0.0027751923 0
2.9941564 -1.2296919 0.0023138523 0
2.9977489 -1.2446406 0.0010094643 0
3.0064852 -1.2601075 -0.0032577515 0
3.0041046 -1.274586 -0.0011149645 0
3.0115407 -1.2900546 -0.0046263933 0
3.0107071 -1.3047166 -0.0033733845 0
3.0145681 -1.319908 -0.0048211813 0
3.0067306 -1.3337699 0.00046110153 0
3.0016539 -1.3479011 0.0041527748 0
3.0161471 -1.3644944 -0.0034016371 0
3.0121167 -1.3787823 -0.00030982494 0
3.0109706 -1.3934391 0.0011246204 0
3.0100224 -1.4081244 0.0024455786 0
3.02162 -1.4246731 -0.0034281015 0
3.0150852 -1.4385722 0.0010988712 0
3.0138826 -1.4532635 0.0025681257 0
3.0215497 -1.4694084 -0.0010420084 0
3.0211675 -1.4842883 -3.9935112e-05 0
3.022238 -1.4994326 0.00013172626 0
3.0324616 -1.516242 -0.004929781 0
3.0343533 -1.5316393 -0.0052220821 0
3.0295851 -1.5458136 -0.0017073154 0
3.0310879 -1.5611756 -0.0017756224 0
3.0352688 -1.5771062 -0.0033706427 0
3.0279326 -1.5907421 0.0016084909 0
3.034158 -1.6071684 -0.0011491776 0
3.0378885 -1.6231426 -0.0024800301 0
3.0380304 -1.6383866 -0.001763463 0
3.0416288 -1.654433 -0.0030139685 0
3.04231 -1.6698666 -0.0026007891 0
3.0393496 -1.6844718 -0.00011432171 0
3.042578 -1.7005614 -0.0011473894 0
3.0431509 -1.7160554 -0.00066816807 0
3.0469921 -1.732402 -0.0020439625 0
3.0554495 -1.7499998 -0.0060373545 0
3.0495965 -1.7639647 -0.0019031763 0
3.0503521 -1.7796605 -0.0015195608 0
3.052599 -1.7957983 -0.0019797087 0
3.054419 -1.8118699 -0.0021950006 0
3.0546095 -1.8275287 -0.0014849901 0
3.0581529 -1.8441858 -0.002671361 0
3.0542939 -1.8587379 0.00033462048 0
3.0630996 -1.8770657 -0.0038230419 0
3.0597734 -1.8918289 -0.0011156797 0
3.0711598 -1.9111428 -0.0067216158 0
3.0640435 -1.9247861 -0.0018699169 0
3.0690022 -1.9422541 -0.0038366318 0
3.0700922 -1.9585505 -0.0036158562 0
3.0722258 -1.9752398 -0.0039812326 0
3.0633354 -1.9882801 0.0018701553 0
3.0739751 -2.0079365 -0.0032838583 0
3.0770142 -2.0251071 -0.0041501522 0
3.0889993 -2.0455046 -0.010047317 0
3.0757129 -2.0570221 -0.0017206669 0
3.0819137 -2.07552 -0.0043553114 0
3.0805638 -2.0913401 -0.0027413368 0
3.0770602 -2.1063809 8.3565712e-05 0
3.079205 -2.1235719 -0.0002617836 0
3.0873256 -2.1431336 -0.0039565563 0
3.0743921 -2.1545968 0.0041620731 0
3.0845239 -2.1751089 -0.0006519556 0
3.093576 -2.1953454 -0.0048525333 0
3.0934465 -2.2119853 -0.0039049387 0
3.0949817 -2.2293606 -0.0038865805 0
3.0966063 -2.2468386 -0.0039145947 0
3.0895591 -2.2607026 0.000908494 0
3.1022873 -2.2830448 -0.0053186417 0
3.0921519 -2.2956171 0.0012316704 0
3.0978777 -2.3151295 -0.0010735989 0
3.1053216 -2.3355286 -0.0043311119 0
3.1029947 -2.3516412 -0.0021338463 0
3.1063499 -2.370388 -0.0031013489 0
3.0935013 -2.3817048 0.0049601793 0
3.1043208 -2.4040577 -0.00015676022 0
3.1115172 -2.4248691 -0.00324893 0
3.1202364 -2.4465566 -0.0071802139 0
3.1099155 -2.4591217 -0.00052237511 0
3.1143386 -2.4789019 -0.0020564795 0
3.1246092 -2.5017157 -0.0068302155 0
3.1195977 -2.516993 -0.0031163692 0
3.1140969 -2.5320251 0.00086891651 0
3.1285932 -2.5573964 -0.0062270164 0
3.12871 -2.5754852 -0.0053466558 0
3.1193497 -2.5886312 0.00078308582 0
3.130702 -2.612812 -0.0045477152 0
3.1266778 -2.6288815 -0.0013661385 0
3.1239541 -2.645684 0.0010977983 0
3.1349299 -2.6701021 -0.0040020943 0
3.1370356 -2.6897669 -0.0041950941 0
3.1319437 -2.7054627 -0.00041258335 0
3.1369107 -2.7269197 -0.0021747351 0
3.1408925 -2.7479444 -0.0033870935 0
3.1501236 -2.7721615 -0.0074832439 0
3.1443546 -2.7877216 -0.0033141375 0
3.1456349 -2.8074937 -0.0030220747 0
3.1477396 -2.8278599 -0.0031776428 0
3.1512122 -2.8491685 -0.0040792227 0
3.1534309 -2.8698337 -0.0042854548 0
3.1566455 -2.8912315 -0.0050324202 0
3.1552489 -2.909863 -0.003243804 0
3.1607392 -2.9329319 -0.0052256584 0
3.1557307 -2.9494357 -0.0014494658 0
3.161967 -2.9732428 -0.0038262606 0
3.159934 -2.9918177 -0.0016707182 0
3.1654422 -3.0154395 -0.0036342144 0
3.1672876 -3.0367866 -0.0035877228 0
3.1664054 -3.0564182 -0.0020456314 0
3.1689889 -3.0784938 -0.0023901463 0
3.1689324 -3.0988915 -0.0012881756 0
3.1729894 -3.1222413 -0.0024220943 0
3.1681771 -3.1395407 0.0012819767 0
3.1745269 -3.1647689 -0.0010863543 0
3.1795874 -3.189271 -0.0027433634 0
3.1754758 -3.2073419 0.00059378147 0
3.1866894 -3.2366126 -0.0043898821 0
3.180738 -3.2535467 -4.2796135e-05 0
3.1822312 -3.2760298 0.00026798248 0
3.1917868 -3.3046815 -0.0037844181 0
3.190995 -3.3257689 -0.0022186041 0
3.1952589 -3.3508196 -0.0033837557 0
3.1972513 -3.3743033 -0.0033109188 0
3.1995175 -3.3981524 -0.0033780336 0
3.2013552 -3.4218221 -0.0032052994 0
3.2073629 -3.4489431 -0.0052756071 0
3.2058933 -3.4703133 -0.0033010244 0
3.2048895 -3.4921684 -0.0015718937 0
3.2080548 -3.5175302 -0.0020821095 0
3.2087848 -3.5410776 -0.0012720823 0
3.2193747 -3.572932 -0.0057576895 0
3.2116635 -3.5898037 -0.00039112568 0
3.2180755 -3.6186004 -0.0026085377 0
3.2266729 -3.6494966 -0.0059862137 0
3.2259502 -3.6726758 -0.0043510199 0
3.2246091 -3.6954589 -0.0023770332 0
3.2275956 -3.7221508 -0.0027136803 0
3.2333031 -3.7514403 -0.0044959784 0
1.197516 -1.9668624 1.0852773 0
1.1886899 -1.9675756 1.090445 0
1.1796246 -1.9679894 1.095736 0
1.1688192 -1.9667287 1.1019506 0
1.1502621 -1.9582176 1.112291 0
1.1501675 -1.9666065 1.1127858 0
1.1418142 -1.9673166 1.1176784 0
1.1332469 -1.9677469 1.1226807 0
1.1163538 -1.9601605 1.1321025 0
1.117178 -1.9693849 1.132107 0
1.1029527 -1.9640906 1.140098 0
1.0903288 -1.9601834 1.147231 0
1.0838122 -1.962148 1.1511219 0
1.0813601 -1.9681067 1.1528594 0
1.0923104 -1.987536 1.1475132 0
1.0852029 -1.9889374 1.1517179 0
1.0840458 -1.9963545 1.1527793 0
