# .PCD v0.7 - Point Cloud Data file format
VERSION 0.7
FIELDS x y z rgb
SIZE 4 4 4 4
TYPE F F F F
COUNT 1 1 1 1
WIDTH 1328
HEIGHT 1
VIEWPOINT 0 0 0 1 0 0 0
POINTS 1328
DATA ascii
-0.69497299 -2.3928859 0.39888251 0
-0.69189119 -2.3823187 0.39645147 0
-0.68651193 -2.3676269 0.39794087 0
-0.681903 -2.354387 0.39822114 0
-0.67939371 -2.3449719 0.39500296 0
-0.67212445 -2.3270612 0.39998376 0
-0.66982627 -2.318104 0.39652598 0
-0.66375422 -2.3024628 0.39964724 0
-0.65821153 -2.2878301 0.40195394 0
-0.65554142 -2.2783296 0.39932096 0
-0.65240467 -2.2680359 0.39755189 0
-0.64939284 -2.2579937 0.39561164 0
-0.64306748 -2.2422028 0.39963078 0
-0.63911813 -2.2306151 0.39950085 0
-0.63552928 -2.2196956 0.39878726 0
-0.63281953 -2.2103305 0.39653707 0
-0.6268779 -2.1954398 0.40022457 0
-0.62250209 -2.1832981 0.40114558 0
-0.62075269 -2.1756835 0.39729691 0
-0.61532027 -2.1618278 0.40029991 0
-0.6122756 -2.1520739 0.39894617 0
-0.61321151 -2.1490583 0.39017594 0
-0.60583949 -2.1320777 0.39703441 0
-0.59632611 -2.1116064 0.40808797 0
-0.5962621 -2.1069837 0.40131199 0
-0.59487224 -2.1001539 0.39706242 0
-0.59244043 -2.0916114 0.39483249 0
-0.58879542 -2.0810966 0.39498675 0
-0.58179975 -2.0651321 0.40172374 0
-0.58509302 -2.0660334 0.38844848 0
-0.5846839 -2.0608652 0.38237417 0
-0.58696592 -2.0600436 0.37096691 0
-0.59262753 -2.0646222 0.35277295 0
-0.59298015 -2.0605972 0.34505641 0
-0.59372783 -2.0571866 0.33652008 0
-0.59851778 -2.0601797 0.31978202 0
-0.60207915 -2.0611489 0.30541885 0
-0.75079894 -2.2908182 -0.005389452 0
-0.74312145 -2.2730181 0.0015764236 0
-0.73973739 -2.2620153 -0.00017511845 0
-0.73766792 -2.2530875 -0.0046060085 0
-0.73261309 -2.2395506 -0.0027952194 0
-0.72725916 -2.2256072 -0.00027561188 0
-0.72332335 -2.2138977 -0.00065243244 0
-0.7213645 -2.2052443 -0.0051555634 0
-0.71361554 -2.1878028 0.0026757717 0
-0.71239233 -2.1803241 -0.0033062696 0
-0.70468771 -2.1630878 0.0046420097 0
-0.70219147 -2.1537471 0.0014793873 0
-0.6965729 -2.1397686 0.0051231384 0
-0.69617999 -2.1336067 -0.0025414228 0
-0.69219398 -2.1221261 -0.0023452044 0
-0.68787348 -2.110193 -0.0013518333 0
-0.68373489 -2.0985694 -0.00069499016 0
-0.68069601 -2.088587 -0.0024237633 0
-0.67599082 -2.0762177 -0.00038564205 0
-0.67169464 -2.064487 0.00080859661 0
-0.66973937 -2.0561528 -0.0032233 0
-0.66808003 -2.0482492 -0.0079140663 0
-0.65907174 -2.029932 0.0041822195 0
-0.65761387 -2.0223751 -0.00087475777 0
-0.65364593 -2.0112994 -0.00014054775 0
-0.65006328 -2.0007992 -0.00024116039 0
-0.65031123 -1.995647 -0.009214282 0
-0.64187109 -1.9784801 0.0021122694 0
-0.63742161 -1.9668968 0.0042135715 0
-0.63701081 -1.9608705 -0.0031641722 0
-0.63585526 -1.9538176 -0.0087969303 0
-0.63167834 -1.9426837 -0.0072216988 0
-0.62479937 -1.9279667 0.00090122223 0
-0.62434042 -1.921896 -0.0063300133 0
-0.61765158 -1.9075491 0.0015124083 0
-0.61148095 -1.8939669 0.0082176924 0
-0.6111145 -1.888062 0.00082778931 0
-0.60768735 -1.8781534 0.00093948841 0
-0.60668176 -1.8714089 -0.0048892498 0
-0.60152817 -1.8593209 -0.00042641163 0
-0.59993589 -1.8518429 -0.0047655106 0
-0.59460497 -1.8396168 0.00027549267 0
-0.59115297 -1.8298231 0.00067293644 0
-0.58874059 -1.8213632 -0.001517415 0
-0.58627564 -1.8128518 -0.0035524368 0
-0.58212888 -1.8022734 -0.001262784 0
-0.57466745 -1.7876633 0.0096148252 0
-0.57615185 -1.7840712 -0.0024760962 0
-0.56973481 -1.7708478 0.0058732033 0
-0.56876028 -1.7642574 0.00014185905 0
-0.5667783 -1.7564515 -0.0029642582 0
-0.56314224 -1.7466881 -0.0017018318 0
-0.5600031 -1.7375438 -0.001704216 0
-0.55656141 -1.7280712 -0.00086224079 0
-0.55481911 -1.7206025 -0.0045194626 0
-0.55074787 -1.7104508 -0.001914382 0
-0.54634684 -1.6999626 0.0016444921 0
-0.54227448 -1.6898954 0.0043840408 0
-0.54063487 -1.6826103 0.00055015087 0
-0.53696632 -1.6730565 0.0022772551 0
-0.53300506 -1.663213 0.0048642159 0
-0.53384149 -1.658686 -0.0057719946 0
-0.52976662 -1.6487558 -0.0028120279 0
-0.52351975 -1.636518 0.0062856674 0
-0.52501297 -1.6326647 -0.0062431097 0
-0.52187991 -1.6238317 -0.0057971478 0
-0.51891798 -1.6152047 -0.0057979822 0
-0.5131312 -1.6036472 0.0022921562 0
-0.50993192 -1.5948443 0.0030784607 0
-0.51018578 -1.5896122 -0.0060427189 0
-0.50741965 -1.5812702 -0.0064790249 0
-0.50143886 -1.5697083 0.0024677515 0
-0.49747956 -1.5602429 0.0056232214 0
-0.49523842 -1.5525171 0.0037920475 0
-0.49460065 -1.546368 -0.0027632713 0
-0.4897784 -1.5361421 0.0030699968 0
-0.4884637 -1.5293381 -0.0014744997 0
-0.48819178 -1.5235134 -0.0091620684 0
-0.48507732 -1.5149877 -0.0083292723 0
-0.47882885 -1.5035745 0.0020352602 0
-0.47627103 -1.4956418 0.0012974739 0
-0.47208214 -1.48624 0.0055716038 0
0.044398915 -1.0164289 1.585675 0
0.04485438 -1.0157026 1.5865917 0
0.046817299 -1.0136596 1.5922039 0
0.043421023 -1.0163058 1.5811365 0
0.045684408 -1.0140268 1.5877246 0
0.044602886 -1.0146252 1.5838271 0
0.04827778 -1.0112216 1.5949773 0
0.043320209 -1.0150193 1.5787227 0
0.045300629 -1.0130563 1.5845348 0
0.043730076 -1.0139877 1.5789702 0
0.043808658 -1.0135747 1.5786892 0
0.041908547 -1.0147077 1.5719663 0
0.039770313 -1.0159789 1.5643957 0
0.042505771 -1.0134988 1.5727768 0
0.040556516 -1.0145816 1.5657587 0
0.04106836 -1.0138041 1.5668483 0
0.038531125 -1.0152462 1.5577632 0
0.041987654 -1.0123494 1.568716 0
0.043055445 -1.0112065 1.5717207 0
0.041623775 -1.0118104 1.5662739 0
0.041256916 -1.0116551 1.5644045 0
0.042893343 -1.0101528 1.5693899 0
0.045232043 -1.0082271 1.576853 0
0.042450976 -1.0096422 1.566642 0
0.0450547 -1.0075946 1.5750978 0
0.045510896 -1.0069338 1.5761181 0
0.043234374 -1.0079343 1.5675185 0
0.043665759 -1.0072702 1.5684232 0
0.045640826 -1.0057186 1.5748398 0
0.045636378 -1.0053362 1.5742357 0
0.044364989 -1.0056518 1.5690618 0
0.043520976 -1.0056998 1.5653801 0
0.045600593 -1.0041788 1.5723087 0
0.045859508 -1.0036458 1.5726465 0
0.045514323 -1.0034188 1.5707641 0
0.045799278 -1.0028715 1.5711957 0
0.043638572 -1.0034871 1.5625234 0
0.044930249 -1.0024507 1.5666869 0
0.043403365 -1.0027038 1.5602804 0
0.045628034 -1.0012885 1.5680158 0
0.047447026 -1.0001014 1.574295 0
0.045340851 -1.0005467 1.5656049 0
0.045667756 -0.99998003 1.5661938 0
0.04505045 -0.99977213 1.5631299 0
0.045936264 -0.99900079 1.5658926 0
0.046758298 -0.99827331 1.5684384 0
0.047489978 -0.99759579 1.5706587 0
0.04645133 -0.99749285 1.5658807 0
0.046820268 -0.99693239 1.5666658 0
0.046381351 -0.99660772 1.5642172 0
0.047582295 -0.99582511 1.5683646 0
0.047191083 -0.99547696 1.5660924 0
0.048101667 -0.99480426 1.5691158 0
0.046641111 -0.99467701 1.5624236 0
0.048452795 -0.99383163 1.5691922 0
0.051439483 -0.99282169 1.5809369 0
0.048260137 -0.99295461 1.5669954 0
0.049065955 -0.99236542 1.5696805 0
0.045865312 -0.99234253 1.5554062 0
0.050165948 -0.99131507 1.5729697 0
0.048205633 -0.99106389 1.5638648 0
0.047902577 -0.99060005 1.5618081 0
0.051049963 -0.98989511 1.5747335 0
0.050585657 -0.98946792 1.5720153 0
0.049252376 -0.98904276 1.5654343 0
0.047812998 -0.9885633 1.5582983 0
0.049137194 -0.98804861 1.5634034 0
0.047673091 -0.98749912 1.5560504 0
0.050470501 -0.98708963 1.5678701 0
0.050377537 -0.98658854 1.5666912 0
-1.1659601 -5.3958044 2.977885 0
-1.1723466 -5.4032564 2.9592073 0
-1.175789 -5.4003091 2.9375405 0
-1.17702 -5.3896422 2.9137795 0
-1.1835905 -5.3977661 2.8953254 0
-1.189465 -5.4034328 2.8761671 0
-1.1911845 -5.3946395 2.8531487 0
-1.1960475 -5.3968234 2.8331127 0
-1.2023636 -5.4040351 2.8143795 0
-1.2063285 -5.4031286 2.7935681 0
-1.2095364 -5.3996534 2.7721617 0
-1.2140551 -5.4007049 2.7519174 0
-1.219053 -5.4034061 2.7320852 0
-1.2226359 -5.4013014 2.7111373 0
-1.2264639 -5.4000602 2.6904349 0
-1.2307928 -5.4005375 2.6701565 0
-1.2332605 -5.3947668 2.6485305 0
-1.2403501 -5.4045558 2.6303244 0
-1.2438776 -5.4023886 2.6095414 0
-1.2485533 -5.404079 2.5895958 0
-1.2486734 -5.3906355 2.5666175 0
-1.2535926 -5.3931909 2.5469265 0
-1.2576807 -5.3929992 2.5267074 0
-1.2641222 -5.4005733 2.5079646 0
-1.2708254 -5.4089713 2.4893234 0
-1.2712736 -5.3968654 2.4669752 0
-1.2770622 -5.402267 2.447793 0
-1.2779981 -5.3918657 2.4259107 0
-1.286765 -5.4069285 2.408325 0
-1.2889929 -5.400775 2.387228 0
-1.2933894 -5.4016576 2.3672955 0
-1.2978089 -5.4026184 2.3473816 0
-1.302866 -5.4056253 2.3277724 0
-1.3027885 -5.3922238 2.3058257 0
-1.3084018 -5.3970318 2.2865088 0
-1.3137044 -5.4008327 2.2670267 0
-1.3179064 -5.401134 2.2470732 0
-1.3219403 -5.4009099 2.2270625 0
-1.3246043 -5.3963819 2.2065511 0
-1.328745 -5.3965192 2.1866229 0
-1.3323579 -5.39501 2.1665208 0
-1.3376513 -5.398757 2.1469934 0
-1.342436 -5.4009037 2.1272771 0
-1.3468913 -5.4020205 2.1074479 0
-1.3514774 -5.4035378 2.0876503 0
-1.3546362 -5.4006476 2.0674582 0
-1.3580114 -5.3984413 2.0473521 0
-1.3637018 -5.4033489 2.0278254 0
-1.3681885 -5.4045486 2.0079823 0
-1.3721966 -5.404283 1.9880283 0
-1.3738652 -5.3969059 1.9676168 0
-1.3814291 -5.407445 1.9483503 0
-1.3859267 -5.4086528 1.9284676 0
-1.388364 -5.4036407 1.9082537 0
-1.3909504 -5.3991032 1.8881044 0
-1.3946875 -5.3980393 1.8681391 0
-1.3998778 -5.4013233 1.8483428 0
-1.4057833 -5.4067187 1.8285817 0
-1.4067988 -5.3975396 1.8083487 0
-1.4107329 -5.3970628 1.7884021 0
-1.4152554 -5.398324 1.7684865 0
-1.4215245 -5.4047236 1.7486287 0
-1.4234804 -5.3983979 1.7285706 0
-1.4281446 -5.4000449 1.7086076 0
-1.4343733 -5.4062524 1.6886259 0
-1.4385139 -5.4063282 1.6685957 0
-1.4388587 -5.3953543 1.6486372 0
-1.4417514 -5.3918238 1.6286744 0
-1.4497576 -5.4031 1.6084833 0
-1.453199 -5.4011354 1.588457 0
-1.4579498 -5.4029398 1.5683362 0
-1.4640989 -5.4087396 1.548062 0
-1.465709 -5.401505 1.5281731 0
-1.4729842 -5.4104719 1.5076934 0
-1.4722886 -5.3966861 1.4881155 0
-1.4756247 -5.3944106 1.4680851 0
-1.4811283 -5.3982749 1.4477293 0
-1.4855337 -5.3990045 1.427498 0
-1.4890084 -5.3970952 1.4074036 0
-1.4944791 -5.4007916 1.3869294 0
-1.4973575 -5.397192 1.36692 0
-3.3274276 -9.9231119 -0.0028586388 0
-0.65826678 -2.9110816 1.3103851 0
-0.66173559 -2.9151821 1.3003293 0
-0.66362953 -2.915148 1.2910526 0
-3.0395606 -9.0833693 -0.00031852722 0
-2.9804971 -8.9094467 -0.0025085211 0
-2.9179814 -8.7274466 -0.0013474226 0
-2.8609121 -8.5603771 -0.0018293858 0
-2.806041 -8.3997726 -0.0022435188 0
-2.7528129 -8.2441597 -0.0023398399 0
-2.7029808 -8.0979891 -0.0032407045 0
-2.6492555 -7.9425893 -0.00056362152 0
-0.60117579 -2.7119825 1.2566547 0
-0.60255849 -2.7110536 1.248376 0
-0.60638857 -2.7163143 1.2384942 0
-2.4733169 -7.4268789 -0.003136158 0
-2.4298415 -7.3007731 -0.001558423 0
-2.3905284 -7.1857281 -0.0018178225 0
-2.3506389 -7.0697856 -0.00076699257 0
-2.3185301 -6.9738421 -0.004278183 0
-2.2773864 -6.8558235 -0.00058078766 0
-2.2448671 -6.7598128 -0.0022046566 0
-0.66598576 -2.828805 1.1357541 0
-0.66469187 -2.8208494 1.1288007 0
-0.66716987 -2.8222275 1.1190327 0
-0.66534895 -2.8130028 1.1125313 0
-0.66716623 -2.812742 1.1032498 0
-0.66970557 -2.814235 1.0933748 0
-0.66780788 -2.8048687 1.0870112 0
-0.66954428 -2.8043873 1.0777562 0
-0.67271 -2.8073647 1.067305 0
-0.67616844 -2.8110199 1.0565575 0
-0.6784063 -2.8116896 1.0467792 0
-0.67772633 -2.805306 1.0394554 0
-0.68196452 -2.8107629 1.0279136 0
-0.68420243 -2.8113778 1.0180435 0
-0.69156557 -2.8242302 1.003608 0
-0.69511747 -2.8279061 0.99244052 0
-0.69826984 -2.8305943 0.98157245 0
-1.7618338 -5.3495793 0.00011086464 0
-1.7431134 -5.2938385 -0.0016089678 0
-1.7216126 -5.2317815 -0.00031292439 0
-1.7025446 -5.175735 -0.00084936619 0
-1.6832788 -5.1194749 -0.0007789135 0
-1.6645221 -5.0646591 -0.00078010559 0
-1.6460917 -5.0108509 -0.00069236755 0
-1.6291806 -4.9608212 -0.0017046928 0
-1.6090926 -4.9036322 0.0008212328 0
-1.5962629 -4.8635211 -0.0035389662 0
-1.5751852 -4.8045173 0.00078237057 0
-1.5596613 -4.758584 -0.00016057491 0
-1.5454922 -4.7159667 -0.0021754503 0
-1.5272706 -4.6642408 0.00036525726 0
-1.5124317 -4.6204824 -0.00028967857 0
-1.4984261 -4.578815 -0.0015182495 0
-1.4784765 -4.5238075 0.0039687157 0
-1.4696563 -4.4942966 -0.0022526979 0
-1.457683 -4.457767 -0.0048155785 0
-1.4412142 -4.4112487 -0.0021318197 0
-1.4274379 -4.370996 -0.0021201372 0
-1.414081 -4.3318586 -0.0022921562 0
-1.400728 -4.2928977 -0.002188921 0
-1.3857614 -4.2505031 5.0663948e-05 0
-1.3714174 -4.2096825 0.0018794537 0
-1.3657219 -4.1882343 -0.0061221123 0
-0.9514485 -3.2625356 0.46859264 0
-0.86058855 -3.055737 0.56642699 0
-0.85792583 -3.044184 0.56014466 0
-0.85657585 -3.0355465 0.55232835 0
-0.85665458 -3.030055 0.54279745 0
-0.85812736 -3.027607 0.53154969 0
-0.85679722 -3.0190403 0.52375507 0
-0.85668856 -3.0131431 0.51446009 0
-0.85608071 -3.0061667 0.50579846 0
-0.85394686 -2.9959047 0.49909174 0
-0.85816246 -2.9993365 0.48428655 0
-0.79133701 -2.850224 0.56121063 0
-0.78692967 -2.8355272 0.5581845 0
-0.78065354 -2.8168952 0.55770063 0
-0.77684444 -2.8035893 0.55407929 0
-0.77104467 -2.7861047 0.55318737 0
-0.77165651 -2.7822576 0.54380059 0
-0.77569658 -2.7856364 0.52976084 0
-0.77780259 -2.7848954 0.51827455 0
-0.78066355 -2.7857111 0.50570595 0
-0.85201854 -2.929775 0.39832151 0
-0.76198786 -2.7363436 0.5143857 0
-0.7569539 -2.7207785 0.51296341 0
-0.75354952 -2.7086513 0.50933528 0
-0.75230742 -2.7010343 0.50269353 0
-0.74711281 -2.6852815 0.50174046 0
-0.74802995 -2.6821513 0.4920615 0
-0.74119788 -2.6631267 0.49362993 0
-0.74118847 -2.6581221 0.48533928 0
-0.74281329 -2.6564436 0.47463381 0
-0.74737698 -2.6607108 0.45952535 0
-0.78340584 -2.7286322 0.39727521 0
-0.7786836 -2.7138412 0.39562511 0
-0.77234107 -2.695843 0.39652026 0
-0.76585418 -2.677628 0.39775693 0
-0.75877088 -2.6582952 0.40003455 0
-0.74879527 -2.6332765 0.40692127 0
-0.7509194 -2.6324306 0.39517212 0
-0.74475712 -2.6151309 0.39635301 0
-0.73679179 -2.5943387 0.40049398 0
-0.73281378 -2.5814931 0.39846134 0
-0.72851831 -2.5680673 0.39700782 0
-0.72074908 -2.5478902 0.4012183 0
-0.71448034 -2.5307305 0.40315056 0
-0.71301442 -2.5229831 0.39738166 0
-0.70678771 -2.5060182 0.39943433 0
-0.70214504 -2.4921851 0.3989923 0
-0.69771039 -2.4788041 0.39829087 0
-0.69041783 -2.4599838 0.40244162 0
-0.68819088 -2.4509428 0.39822197 0
-0.68239027 -2.4351051 0.4000777 0
-0.6788159 -2.4235659 0.3982563 0
-0.6727984 -2.4074337 0.40067756 0
-0.66665941 -2.3911402 0.40342128 0
-0.66637975 -2.3859465 0.39613116 0
-0.6613667 -2.3718677 0.39708257 0
-0.65476626 -2.3548756 0.40090966 0
-0.65187556 -2.3448722 0.39831841 0
-0.64878803 -2.3345318 0.39612389 0
-0.64246351 -2.3182306 0.39975786 0
-0.6343379 -2.2986789 0.40674543 0
-0.63336807 -2.2923753 0.40096664 0
-0.63227278 -2.2858462 0.39542186 0
-0.62323838 -2.2648289 0.40439248 0
-0.62320739 -2.2602959 0.39699209 0
-0.61882061 -2.2478588 0.39762998 0
-0.61404675 -2.2347691 0.39906538 0
-0.60782343 -2.2191231 0.4032979 0
-0.60521883 -2.2100368 0.40084159 0
-0.6027652 -2.2012444 0.39813983 0
-0.60011971 -2.1921318 0.39583886 0
-0.59695584 -2.1821241 0.39457035 0
-0.5915336 -2.1681557 0.39769828 0
-0.58626217 -2.1545134 0.400635 0
-0.58538425 -2.1486368 0.39511967 0
-0.57868928 -2.1325946 0.40098846 0
-0.57853508 -2.1280177 0.39411521 0
-0.57328624 -2.1145949 0.39730775 0
-0.56951308 -2.1037805 0.39766133 0
-0.5649001 -2.0915589 0.39975917 0
-0.55975586 -2.0784762 0.40300941 0
-0.55927104 -2.0734086 0.39692783 0
-0.55382162 -2.0598896 0.40093637 0
-0.55760866 -2.0620835 0.38615501 0
-0.55442661 -2.0524516 0.38560104 0
-0.55923849 -2.056289 0.36856842 0
-0.5646587 -2.0610666 0.35014141 0
-0.56413704 -2.0558503 0.34399152 0
-0.56994933 -2.0611467 0.32451904 0
-0.57431096 -2.0639513 0.30795789 0
-0.57456273 -2.0599129 0.3000052 0
-0.71194154 -2.2807708 -0.00086772442 0
-0.70652431 -2.2664933 0.0017210245 0
-0.70261073 -2.2547185 0.0011581182 0
-0.69712716 -2.240438 0.0040643215 0
-0.6947062 -2.2311535 0.00038433075 0
-0.69174582 -2.2210193 -0.0020858049 0
-0.68709493 -2.2082055 -0.00078988075 0
-0.68483382 -2.1992419 -0.0047137737 0
-0.67867464 -2.1841149 7.1525574e-05 0
-0.67454314 -2.1722548 0.00042772293 0
-0.67172873 -2.1625021 -0.0021175146 0
-0.66923743 -2.153275 -0.0053598881 0
-0.66403735 -2.1398494 -0.0024092197 0
-0.65765005 -2.1246397 0.0033487082 0
-0.65627187 -2.1172242 -0.0022947788 0
-0.65304279 -2.1069682 -0.0036597252 0
-0.65005893 -2.0971131 -0.0055500269 0
-0.64340597 -2.0817049 0.0011701584 0
-0.64118099 -2.07307 -0.0023821592 0
-0.63805312 -2.0630877 -0.0037835836 0
-0.63520497 -2.0535491 -0.0058079958 0
-0.62906295 -2.0391226 6.0677528e-05 0
-0.62858939 -2.0331707 -0.0075483322 0
-0.62272745 -2.0192544 -0.0021934509 0
-0.61984187 -2.0097723 -0.0039410591 0
-0.61334807 -1.9950426 0.0031347275 0
-0.61581594 -1.9934068 -0.011603951 0
-0.60478967 -1.9722102 0.0067642927 0
-0.60485631 -1.9671044 -0.0020653009 0
-0.60114706 -1.9565754 -0.0015472174 0
-0.59799689 -1.9468753 -0.0023703575 0
-0.59670347 -1.9398258 -0.0078163147 0
-0.59095389 -1.9265049 -0.002016902 0
-0.58824193 -1.9174976 -0.0038186312 0
-0.58524436 -1.9081116 -0.0048613548 0
-0.58017313 -1.8958797 -0.00054979324 0
-0.57893521 -1.8889744 -0.006026268 0
-0.57411444 -1.8771651 -0.002229929 0
-0.56837612 -1.8641601 0.0040413141 0
-0.56812102 -1.8586301 -0.0039288998 0
-0.56623298 -1.8508847 -0.0076395273 0
-0.55991727 -1.8372335 0.00036633015 0
-0.55487472 -1.8253477 0.0051146746 0
-0.55534023 -1.8207803 -0.0047599077 0
-0.54954487 -1.8079746 0.0021208525 0
-0.54977018 -1.8030761 -0.0071353912 0
-0.54341525 -1.789634 0.001409173 0
-0.54041201 -1.7805781 0.00094425678 0
-0.53525978 -1.7688005 0.0064069033 0
-0.53808564 -1.7672001 -0.010015368 0
-0.53395593 -1.7567608 -0.0073012114 0
-0.52687651 -1.7426721 0.0036935806 0
-0.52507287 -1.7352316 7.9512596e-05 0
-0.52180022 -1.7259798 0.00059962273 0
-0.51614743 -1.7138392 0.0078943968 0
-0.51823986 -1.7111882 -0.0067076683 0
-0.51163322 -1.6979655 0.0034278631 0
-0.50923783 -1.6898766 0.0016146898 0
-0.50390649 -1.6783061 0.0082943439 0
-0.50402266 -1.6732323 -0.00072312355 0
-0.50325811 -1.6670923 -0.0072292089 0
-0.49784595 -1.6555308 -0.00014102459 0
-0.4951629 -1.6471832 -0.00098514557 0
-0.49239457 -1.6387548 -0.0015484095 0
-0.48891413 -1.6295358 3.7670135e-05 0
-0.48633474 -1.6213626 -0.0010201931 0
-0.48253179 -1.6118376 0.0016264915 0
-0.4809249 -1.6047808 -0.0023062229 0
-0.47651297 -1.5946422 0.0022828579 0
-0.47483999 -1.5875318 -0.0014172792 0
-0.46994847 -1.5769486 0.0047661066 0
-0.46833581 -1.5699275 0.00092065334 0
-0.46780521 -1.5640471 -0.0062912703 0
-0.46181965 -1.5524195 0.0034778118 0
-0.461348 -1.5466019 -0.0039169788 0
-0.45766068 -1.5374475 -0.001216054 0
-0.45228451 -1.5266085 0.0069001913 0
-0.45284265 -1.5218265 -0.00378263 0
-0.44968182 -1.5132807 -0.0026305914 0
-0.44507527 -1.5033324 0.0032224655 0
-0.44320977 -1.4961199 0.00028979778 0
0.048145212 -1.0153062 1.5913252 0
0.046016857 -1.0170501 1.5838692 0
0.046458416 -1.0163146 1.5847934 0
0.04793942 -1.0146133 1.589169 0
0.047831025 -1.0144117 1.5883055 0
0.044562384 -1.0170947 1.5768628 0
0.045214746 -1.0161619 1.5784848 0
0.042629085 -1.0181304 1.5691766 0
0.045980811 -1.0148063 1.5799557 0
0.045505092 -1.0148844 1.57777 0
0.043934442 -1.0158895 1.5717983 0
0.044223864 -1.0152797 1.5721915 0
0.040441044 -1.0180783 1.5584383 0
0.042346917 -1.016096 1.564414 0
0.045552537 -1.0130979 1.5750251 0
0.045629479 -1.0126784 1.5747008 0
0.043114394 -1.0143038 1.5651648 0
0.041587308 -1.015098 1.5590538 0
0.043366693 -1.0133212 1.5647562 0
0.045168553 -1.011567 1.5706058 0
0.042992536 -1.0128012 1.5620687 0
0.043642797 -1.0119188 1.5637643 0
0.04597307 -1.0098457 1.5716549 0
0.044856928 -1.0102526 1.5668993 0
0.047102906 -1.0083046 1.5745879 0
0.043062661 -1.0106736 1.5588659 0
0.045774251 -1.0084431 1.5683507 0
0.045559343 -1.008188 1.5668795 0
0.048730593 -1.0057597 1.5782725 0
0.047391765 -1.0062339 1.5725448 0
0.045891646 -1.0067675 1.5661309 0
0.045725562 -1.0064579 1.5648067 0
0.045883249 -1.0059503 1.5647287 0
0.047929235 -1.0043643 1.572047 0
0.042665239 -1.006905 1.5506533 0
0.047337607 -1.003896 1.5683868 0
0.045934234 -1.0042291 1.5621097 0
0.045736384 -1.0038972 1.5605937 0
0.04855806 -1.0020454 1.5712453 0
0.046444457 -1.002667 1.5619915 0
0.046347938 -1.0022726 1.5608647 0
0.048357584 -1.0009114 1.5683804 0
0.049230628 -1.0001068 1.5712903 0
0.04874973 -0.9998998 1.5686044 0
0.049095508 -0.99933493 1.5693467 0
0.050862744 -0.99821651 1.5760868 0
0.050219588 -0.99806035 1.5726956 0
0.050866842 -0.99741209 1.5747666 0
0.045971051 -0.99869651 1.5530729 0
0.049780391 -0.99694884 1.568706 0
0.050144434 -0.9963994 1.5695629 0
0.048821945 -0.99635625 1.5630531 0
0.049092468 -0.99581867 1.5634745 0
0.049793266 -0.9951722 1.5658092 0
0.050084777 -0.99464464 1.5663495 0
0.051005073 -0.99397916 1.569721 0
0.051635757 -0.99340141 1.5718288 0
0.052577667 -0.9927814 1.5753814 0
0.04955839 -0.99287522 1.5608395 0
0.051156644 -0.99213904 1.5673937 0
0.052336406 -0.99151325 1.5720944 0
0.050926059 -0.99122876 1.5647548 0
0.052302726 -0.99061227 1.5704297 0
0.050889887 -0.99026126 1.5629671 0
0.05383417 -0.98959345 1.5761877 0
0.052087992 -0.98921758 1.5670611 0
0.051722877 -0.98873979 1.5644877 0
0.053312287 -0.98824459 1.5714003 0
0.05407232 -0.98778963 1.5743424 0
0.053597108 -0.98730594 1.5712233 0
-1.1774406 -5.3992152 2.9800501 0
-1.1817001 -5.3998699 2.9593225 0
-1.1853657 -5.3984728 2.9380441 0
-1.1910379 -5.4041023 2.9187853 0
-1.1969678 -5.4106174 2.8997555 0
-1.1954739 -5.3914113 2.8737411 0
-1.2044936 -5.408638 2.8576312 0
-1.2088907 -5.4098759 2.8372183 0
-1.2114304 -5.4047585 2.8151979 0
-1.2135627 -5.3983026 2.792922 0
-1.2175976 -5.3983932 2.7723567 0
-1.2222168 -5.4004898 2.7523096 0
-1.2271929 -5.4038029 2.732563 0
-1.229757 -5.3989692 2.710916 0
-1.2338268 -5.3992548 2.6905131 0
-1.237674 -5.3988094 2.6699724 0
-1.2437693 -5.4059086 2.6511178 0
-1.246619 -5.4021525 2.6298938 0
-1.2487102 -5.3959131 2.6082089 0
-1.2542026 -5.4010081 2.5889354 0
-1.2568748 -5.3967614 2.5677621 0
-1.2629876 -5.4038997 2.5488865 0
-1.2659822 -5.4007592 2.527998 0
-1.2701886 -5.4016237 2.5079091 0
-1.2743012 -5.4021893 2.4877787 0
-1.2772633 -5.3990159 2.4669981 0
-1.2828035 -5.4042501 2.4477236 0
-1.2869967 -5.4051008 2.42768 0
-1.2903895 -5.4033732 2.407223 0
-1.2938991 -5.4020414 2.3868613 0
-1.2987267 -5.4049611 2.3671882 0
-1.3005171 -5.3981466 2.3460386 0
-1.3031808 -5.3941689 2.3253798 0
-1.3094261 -5.401629 2.3063884 0
-1.3130889 -5.4008532 2.2862153 0
-1.3166019 -5.3996148 2.2660003 0
-1.3188987 -5.3945498 2.2453189 0
-1.3222032 -5.392693 2.22509 0
-1.3279507 -5.3985257 2.2058003 0
-1.3327996 -5.401516 2.186142 0
-1.3353859 -5.3974299 2.1656899 0
-1.3404465 -5.4010773 2.1460953 0
-1.3444592 -5.401453 2.1261454 0
-1.3477147 -5.3994856 2.1059735 0
-1.3522383 -5.4014492 2.0861843 0
-1.35278 -5.3911376 2.0653143 0
-1.3588258 -5.3977952 2.0459406 0
-1.3641298 -5.4021459 2.0263302 0
-1.3662963 -5.3968863 2.0059764 0
-1.3725388 -5.4040785 1.9865304 0
-1.3769208 -5.4055781 1.9666537 0
-1.3761343 -5.3914003 1.9458252 0
-1.3833909 -5.4016161 1.9264737 0
-1.3857077 -5.3968821 1.906269 0
-1.3928714 -5.4067469 1.8867804 0
-1.3945017 -5.3999615 1.8665043 0
-1.3986592 -5.4007702 1.8465687 0
-1.4028723 -5.4017372 1.8266263 0
-1.4071883 -5.4030018 1.8066777 0
-1.40964 -5.3987236 1.7865813 0
-1.4141237 -5.4004793 1.7666318 0
-1.4173865 -5.3986173 1.7466063 0
-1.4229476 -5.4035273 1.7266573 0
-1.4244591 -5.3965125 1.706589 0
-1.42959 -5.4001317 1.6865847 0
-1.4323075 -5.3966737 1.6665622 0
-1.4375862 -5.4006925 1.6464989 0
-1.4385167 -5.3920426 1.6265469 0
-1.4442046 -5.3972244 1.6064229 0
-1.4507233 -5.4047756 1.5861864 0
-1.4534249 -5.4012675 1.5661578 0
-1.458007 -5.4031806 1.5459783 0
-1.4633228 -5.4071798 1.5256913 0
-1.4646741 -5.3998003 1.5058061 0
-1.4698867 -5.4034739 1.4854778 0
-1.4722766 -5.3990793 1.4654942 0
-1.4778988 -5.4038796 1.4450371 0
-1.4782022 -5.3935709 1.4253969 0
-1.4849696 -5.4015751 1.4046786 0
-1.4874225 -5.3973618 1.3846899 0
-1.4915527 -5.3978748 1.3643765 0
-1.4979945 -5.4048576 1.3435389 0
-1.4988666 -5.3962059 1.3238842 0
-3.2972124 -9.904191 -0.0054227114 0
-0.65704489 -2.9216628 1.3071171 0
-0.65495038 -2.9113932 1.2998617 0
-0.66000414 -2.9199169 1.2888558 0
-3.0166461 -9.0824537 -0.005767107 0
-2.9535422 -8.8977957 -0.0055559874 0
-2.890476 -8.7140989 -0.0038539171 0
-2.8390877 -8.561595 -0.0074155331 0
-2.7799647 -8.3897524 -0.005171895 0
-2.7268283 -8.2341852 -0.0051299334 0
-2.6750474 -8.0828333 -0.0046554804 0
-2.6274545 -7.9429541 -0.0055682659 0
-0.60017961 -2.724052 1.2525651 0
-0.60052913 -2.7206743 1.2448449 0
-0.59871364 -2.7117734 1.2385577 0
-0.59940368 -2.7092867 1.2306517 0
-2.406301 -7.2958622 -0.0047267675 0
-2.3643661 -7.1740355 -0.003033042 0
-2.3256559 -7.0609183 -0.0026257038 0
-2.2934644 -6.9647546 -0.0059614182 0
-2.2541556 -6.8511176 -0.003392458 0
-0.65851128 -2.8323154 1.1428659 0
-0.65949667 -2.8302281 1.1341432 0
-0.65666294 -2.8186002 1.1283016 0
-0.65567702 -2.8116183 1.1211191 0
-0.65665442 -2.8095357 1.1124456 0
-0.65571547 -2.8026986 1.105276 0
-0.65959078 -2.8077846 1.0942926 0
-0.66203278 -2.8092952 1.0844001 0
-0.6633653 -2.8080542 1.0753788 0
-0.66367841 -2.804302 1.0671895 0
-0.66808611 -2.8105769 1.0555576 0
-0.67057663 -2.8121235 1.0454788 0
-0.67282206 -2.8130496 1.0355704 0
-0.67496866 -2.813715 1.025712 0
-0.6795218 -2.8201935 1.01369 0
-0.67989403 -2.816515 1.005326 0
-0.68961865 -2.8353925 0.98849124 0
-1.7614343 -5.4090972 -0.0020883083 0
-1.7411385 -5.3493071 -0.0027214289 0
-1.7206458 -5.2893033 -0.0027171373 0
-1.7009473 -5.2314558 -0.0030101538 0
-1.68243 -5.176671 -0.0039986372 0
-1.662062 -5.1177239 -0.0027819872 0
-1.6437742 -5.0639615 -0.0031555891 0
-1.6256087 -5.0107183 -0.003246665 0
-1.6075301 -4.9579067 -0.0030257702 0
-1.5901225 -4.9069004 -0.0030862093 0
-1.5727334 -4.8561544 -0.0027854443 0
-1.5568841 -4.809227 -0.0036935806 0
-1.5412997 -4.7631149 -0.004532814 0
-1.5252655 -4.7161503 -0.004557848 0
-1.5063499 -4.6626935 -0.0011707544 0
-1.4916508 -4.6192331 -0.0019056797 0
-1.47633 -4.5745187 -0.0016475916 0
-1.4644433 -4.5379033 -0.0048209429 0
-1.4490724 -4.4934287 -0.0038839579 0
-1.4363725 -4.4552641 -0.0055990219 0
-1.4163554 -4.4005275 0.001201272 0
-1.4050412 -4.3658762 -0.0014681816 0
-1.3931386 -4.3300252 -0.0032194853 0
-1.3797112 -4.2908597 -0.0029526949 0
-1.3630695 -4.2445855 0.0013532639 0
-1.3563626 -4.2209277 -0.0056957006 0
-1.3396816 -4.1749053 -0.00074517727 0
-1.328648 -4.1417594 -0.0022156239 0
-1.3161776 -4.1055284 -0.0017162561 0
-0.93758923 -3.2520175 0.4456619 0
-0.93600732 -3.2424967 0.43708742 0
-0.9333846 -3.2306848 0.42983878 0
-0.93042535 -3.218158 0.42306566 0
-0.85847038 -3.0532529 0.50338387 0
-0.86105937 -3.0534282 0.49039447 0
-0.85843199 -3.0421109 0.48403823 0
-0.85995287 -3.0399151 0.47237468 0
-0.85728979 -3.0285563 0.46612883 0
-0.78439927 -2.8641713 0.55216444 0
-0.7822035 -2.854305 0.5461365 0
-0.77669108 -2.8372748 0.544577 0
-0.77159601 -2.8212104 0.54256809 0
-0.76978165 -2.8122776 0.53621793 0
-0.76571798 -2.7985282 0.53297281 0
-0.76262414 -2.7869046 0.52847457 0
-0.76371449 -2.7842615 0.51823819 0
-0.76661897 -2.7854705 0.50544143 0
-0.83841264 -2.9331098 0.39566576 0
-0.83023077 -2.9103303 0.39773321 0
-0.82405281 -2.8918822 0.39710498 0
-0.74453264 -2.7188776 0.5020721 0
-0.74388915 -2.7126415 0.49443853 0
-0.73978686 -2.6991582 0.49185824 0
-0.73790437 -2.6903608 0.48609567 0
-0.73640865 -2.6823883 0.47979391 0
-0.72929567 -2.6627543 0.48188782 0
-0.73179853 -2.6631303 0.46969235 0
-0.77224272 -2.7418792 0.40009511 0
-0.76873738 -2.7295792 0.39652431 0
-0.75865036 -2.7037938 0.40310359 0
-0.75657004 -2.6945264 0.3975333 0
-0.74778301 -2.6715798 0.40241528 0
-0.74457216 -2.66009 0.39875233 0
-0.73795193 -2.64171 0.40051591 0
-0.73287004 -2.6265187 0.39997029 0
-0.72829044 -2.6123967 0.39872122 0
-0.72186309 -2.5946052 0.40052581 0
-0.71848029 -2.582994 0.39753389 0
-0.7119258 -2.565073 0.3997637 0
-0.70866013 -2.5537837 0.39673483 0
-0.69881141 -2.5294385 0.40461659 0
-0.69652528 -2.5201964 0.4001478 0
-0.69664234 -2.5157247 0.39170229 0
-0.69023496 -2.4983912 0.39420724 0
-0.68106824 -2.4757097 0.40150452 0
-0.67635745 -2.4618561 0.40140009 0
-0.67337555 -2.4514275 0.3984226 0
-0.67020243 -2.440655 0.39582527 0
-0.66193515 -2.4200349 0.40211833 0
-0.65756011 -2.4070327 0.40178251 0
-0.65763348 -2.4026484 0.3937155 0
-0.6520763 -2.38744 0.39558125 0
-0.64460051 -2.368618 0.40096343 0
-0.64192903 -2.3590493 0.39790046 0
-0.63729888 -2.3457789 0.3984046 0
-0.63069314 -2.3288119 0.40257144 0
-0.62909418 -2.3213797 0.39774752 0
-0.62331623 -2.3060875 0.40060031 0
-0.62103754 -2.2974269 0.39711308 0
-0.62003046 -2.2911649 0.39130199 0
-0.61267298 -2.2730646 0.39734197 0
-0.61031348 -2.2643352 0.39414883 0
-0.60257179 -2.2456582 0.40115023 0
-0.60262328 -2.2414527 0.39350927 0
-0.59726453 -2.2272851 0.3961823 0
-0.59535366 -2.2194955 0.39233315 0
-0.58651173 -2.1990595 0.40190077 0
-0.58280534 -2.1880736 0.40166759 0
-0.5796997 -2.1782146 0.40032506 0
-0.5778091 -2.1705804 0.39664471 0
-0.57514328 -2.1615634 0.39452052 0
-0.56705654 -2.1428423 0.40321755 0
-0.56409317 -2.1333749 0.40183187 0
-0.55987138 -2.1216934 0.40302503 0
-0.55581123 -2.1103418 0.40396726 0
-0.55169845 -2.0989387 0.40508974 0
-0.54982048 -2.0915153 0.40171385 0
-0.55024791 -2.0881512 0.39361799 0
-0.54350024 -2.0722222 0.40033448 0
-0.54205245 -2.065603 0.39615989 0
-0.54285783 -2.062901 0.38728416 0
-0.54213732 -2.0575378 0.38157713 0
-0.54422003 -2.056999 0.36993504 0
-0.54753608 -2.0585349 0.35559714 0
-0.55213684 -2.0622084 0.33841062 0
-0.55213815 -2.0579774 0.33098328 0
-0.55346298 -2.0559771 0.32066953 0
-0.55894011 -2.060955 0.30127013 0
-0.69542706 -2.2861588 -0.0047267675 0
-0.68585134 -2.264853 0.0070843697 0
-0.68204498 -2.2532833 0.0063403845 0
-0.68033117 -2.245224 0.0010061264 0
-0.67579103 -2.2324941 0.0019960403 0
-0.67132419 -2.2199292 0.0028991699 0
-0.66784775 -2.2090321 0.0016400814 0
-0.66348118 -2.1967106 0.0024547577 0
-0.66106898 -2.1876087 -0.0011204481 0
-0.65869325 -2.178581 -0.0047535896 0
-0.65386486 -2.1656122 -0.0027022362 0
-0.65088457 -2.1556585 -0.0048549175 0
-0.64873463 -2.147054 -0.0089050531 0
-0.6363501 -2.1221766 0.011067748 0
-0.63653547 -2.1173646 0.0016747713 0
-0.63433594 -2.1087687 -0.0021055937 0
-0.63100833 -2.0984137 -0.0031780005 0
-0.62691307 -2.0868862 -0.0023639202 0
-0.62460953 -2.0781829 -0.0057988167 0
-0.61887807 -2.0641866 -0.00091123581 0
-0.61265951 -2.0495024 0.0052710772 0
-0.61155516 -2.042727 -0.00094127655 0
-0.6082415 -2.0325754 -0.0017281771 0
-0.60505825 -2.0226488 -0.0027900934 0
-0.60014123 -2.010128 0.00050199032 0
-0.59682769 -2.0000682 -0.0001244545 0
-0.59297973 -1.9892356 0.00063848495 0
-0.59170645 -1.982269 -0.0050419569 0
-0.58620226 -1.9690353 1.5735626e-05 0
-0.58466858 -1.9617084 -0.004958868 0
-0.57914525 -1.9485369 0.00030624866 0
-0.57718045 -1.9406112 -0.0035041571 0
-0.57312018 -1.9296546 -0.0018686056 0
-0.56874752 -1.9182857 0.00064826012 0
-0.56536812 -1.9083846 0.00063824654 0
-0.56289077 -1.8997972 -0.0017005205 0
-0.55789179 -1.8876481 0.0026650429 0
-0.55644017 -1.8805542 -0.0023225546 0
-0.55232954 -1.8697295 -0.00019693375 0
-0.54781783 -1.8583856 0.0030781031 0
-0.54547554 -1.8500943 0.0005645752 0
-0.54326361 -1.8419939 -0.0022829771 0
-0.5379833 -1.8296999 0.0032732487 0
-0.53483754 -1.8203712 0.0030673742 0
-0.53408247 -1.8143013 -0.0037015676 0
-0.53096992 -1.805046 -0.0039492846 0
-0.52686071 -1.794482 -0.0013735294 0
-0.52278036 -1.7839971 0.0011925697 0
-0.52158546 -1.7773594 -0.0043132305 0
-0.51793927 -1.767499 -0.0028816462 0
-0.51625329 -1.7602249 -0.0069812536 0
-0.50854206 -1.7451537 0.0061887503 0
-0.50959915 -1.7414551 -0.0057275295 0
-0.50457543 -1.7299454 -0.00011396408 0
-0.50228351 -1.7219565 -0.0023554564 0
-0.49675047 -1.709896 0.0049083233 0
-0.49570167 -1.7035084 -0.00090897083 0
-0.4928661 -1.6948899 -0.0014623404 0
-0.48907459 -1.6851125 0.00086081028 0
-0.48597753 -1.6762208 0.0011713505 0
-0.48246032 -1.6668423 0.0027861595 0
-0.48178571 -1.6609209 -0.0041353703 0
-0.47606421 -1.6489434 0.0042417049 0
-0.47238189 -1.6394579 0.0065165758 0
-0.46995693 -1.6314871 0.0049904585 0
-0.4687078 -1.6249011 -0.00014603138 0
-0.46588105 -1.6164763 -0.00040495396 0
-0.46324843 -1.6082935 -0.0012370348 0
-0.46143001 -1.6010532 -0.0045969486 0
-0.45580584 -1.5895131 0.0040473938 0
-0.45581752 -1.5843576 -0.0050551891 0
-0.45069391 -1.5734645 0.0021531582 0
-0.45123857 -1.5688722 -0.0086996555 0
-0.4425894 -1.554207 0.010000229 0
-0.4452408 -1.5518855 -0.0076897144 0
-0.43934423 -1.5403237 0.0023161173 0
-0.43561918 -1.5311449 0.0053480864 0
-0.43637007 -1.5267029 -0.0062998533 0
-0.43452924 -1.5195115 -0.0094592571 0
-0.42701137 -1.5064754 0.0062875748 0
-0.42631805 -1.5005085 -0.00061774254 0
0.049399689 -1.015573 1.5921315 0
0.045327608 -1.0193511 1.5778437 0
0.048033301 -1.0163505 1.5864774 0
0.050592944 -1.0135484 1.5947088 0
0.050070304 -1.0137746 1.5924214 0
0.048417605 -1.0150656 1.5861974 0
0.047190126 -1.0159167 1.5813856 0
0.046186879 -1.0165288 1.5773066 0
0.047426745 -1.0150502 1.581081 0
0.045771897 -1.0162296 1.5746504 0
0.044777934 -1.016775 1.5705019 0
0.045197997 -1.0160408 1.5713717 0
0.042920966 -1.0176734 1.5625399 0
0.044349942 -1.01605 1.5670319 0
0.045503464 -1.0146915 1.5705736 0
0.041923117 -1.0173315 1.5568153 0
0.04417412 -1.0150566 1.5643865 0
0.043968379 -1.0148358 1.5629425 0
0.047145288 -1.0118898 1.5740919 0
0.046935305 -1.0116969 1.5726752 0
0.046324655 -1.0118073 1.5697325 0
0.045285679 -1.0122271 1.5651324 0
0.046287253 -1.0110803 1.568265 0
0.044941705 -1.0116928 1.5624284 0
0.04709097 -1.0097251 1.570016 0
0.046716072 -1.0096126 1.567893 0
0.047485493 -1.0086842 1.5702165 0
0.046557009 -1.0089401 1.5658966 0
0.047873043 -1.0076541 1.5704001 0
0.047556173 -1.0074785 1.5684646 0
0.048547499 -1.0064441 1.5717418 0
0.046431944 -1.0073999 1.5625526 0
0.047135193 -1.0065477 1.5646697 0
0.047612168 -1.0058478 1.5658921 0
0.047492445 -1.0055099 1.5646843 0
0.047090173 -1.0053269 1.5622971 0
0.04710988 -1.0048907 1.5616335 0
0.049131565 -1.0033562 1.5693254 0
0.049152467 -1.0029414 1.5687051 0
0.050311796 -1.0019345 1.5728935 0
0.049439155 -1.0019774 1.5684868 0
0.049991526 -1.0012965 1.5701295 0
0.051371865 -1.0002388 1.5753638 0
0.047898341 -1.0014266 1.5596068 0
0.049109474 -1.0004442 1.5641041 0
0.049533203 -0.99982828 1.5652001 0
0.050867293 -0.9988513 1.5703386 0
0.051627234 -0.99813712 1.572989 0
0.050231401 -0.9982475 1.5660133 0
0.052632652 -0.99695361 1.576077 0
0.049850214 -0.99749386 1.5627337 0
0.049574427 -0.99712658 1.5606729 0
0.052857742 -0.99566138 1.5749665 0
0.051099423 -0.99575102 1.5660927 0
0.051193986 -0.9952749 1.5657432 0
0.05039436 -0.99502027 1.5611897 0
0.051156871 -0.99436826 1.5639623 0
0.052495979 -0.99361569 1.5695201 0
0.053750411 -0.99292415 1.5747501 0
0.051567428 -0.99287665 1.5634546 0
0.049349658 -0.99274421 1.5518316 0
0.052743778 -0.99175477 1.5675287 0
0.052702241 -0.99129236 1.5665044 0
0.05293189 -0.99079597 1.5668131 0
0.05313126 -0.99030471 1.5669754 0
0.0525809 -0.98985606 1.5633618 0
0.052572165 -0.98935938 1.5624456 0
0.052945167 -0.98885065 1.5634691 0
0.053638898 -0.98835379 1.5661607 0
0.054356508 -0.987881 1.5690172 0
-1.1951816 -5.4060593 2.986217 0
-1.1979461 -5.4025559 2.9641461 0
-1.1991715 -5.3937812 2.9406447 0
-1.2054511 -5.4024968 2.9221787 0
-1.207791 -5.3976512 2.8999248 0
-1.2096528 -5.3912182 2.8773241 0
-1.2173398 -5.4047437 2.8601432 0
-1.220922 -5.404232 2.8391943 0
-1.2252959 -5.4064336 2.8189836 0
-1.2295799 -5.4083405 2.7987123 0
-1.23351 -5.4090595 2.778162 0
-1.2375759 -5.4102535 2.7577538 0
-1.2362144 -5.3932357 2.7330236 0
-1.2404603 -5.3951073 2.7128999 0
-1.2458726 -5.4008813 2.6936831 0
-1.2506707 -5.4045959 2.6739798 0
-1.2519691 -5.3966856 2.6517148 0
-1.255035 -5.3946891 2.6308236 0
-1.261529 -5.4040394 2.6123669 0
-1.2645168 -5.4018073 2.5914645 0
-1.2679847 -5.4011788 2.5709302 0
-1.2709118 -5.3987966 2.5500817 0
-1.2753613 -5.4014139 2.5302393 0
-1.2792871 -5.4023252 2.5100756 0
-1.2827216 -5.4016471 2.4896348 0
-1.2848401 -5.3967218 2.4684639 0
-1.2904793 -5.4032116 2.4493415 0
-1.2942904 -5.4037862 2.429179 0
-1.297303 -5.4018016 2.4086084 0
-1.2999344 -5.3986154 2.3878818 0
-1.3014235 -5.3918037 2.3666384 0
-1.3091112 -5.4048057 2.3484614 0
-1.3115834 -5.4011583 2.3277466 0
-1.3128631 -5.393755 2.3065481 0
-1.319432 -5.4031358 2.2877316 0
-1.3203443 -5.3946214 2.2664716 0
-1.3256363 -5.3999462 2.2470725 0
-1.3274238 -5.3942451 2.2262757 0
-1.3353993 -5.4079614 2.2078495 0
-1.3363086 -5.3995376 2.1867774 0
-1.3407748 -5.4022455 2.1670134 0
-1.3421055 -5.3951983 2.1462071 0
-1.3480028 -5.4023499 2.1269021 0
-1.3532743 -5.4075341 2.1073499 0
-1.352394 -5.3937173 2.0860167 0
-1.3583953 -5.4011497 2.0666637 0
-1.360551 -5.3967423 2.0462716 0
-1.3661804 -5.4029961 2.0267544 0
-1.3674824 -5.3960028 2.0062103 0
-1.3753657 -5.4090972 1.9871167 0
-1.3752886 -5.3979344 1.9663446 0
-1.3813937 -5.4055691 1.9467993 0
-1.3820392 -5.396656 1.9262699 0
-1.3853172 -5.3957281 1.9062259 0
-1.3904603 -5.4004164 1.8864486 0
-1.392169 -5.3947706 1.8661958 0
-1.3982996 -5.4023933 1.8464842 0
-1.4002051 -5.3973546 1.8262868 0
-1.4065943 -5.4056997 1.8065057 0
-1.4100975 -5.4054222 1.7864413 0
-1.4113989 -5.3986125 1.7662494 0
-1.4168838 -5.4042101 1.7462918 0
-1.4186362 -5.3987598 1.7261665 0
-1.4203157 -5.393116 1.7060813 0
-1.4250722 -5.396533 1.6860456 0
-1.4285116 -5.39607 1.6659836 0
-1.4339182 -5.4013538 1.6458673 0
-1.4373112 -5.400733 1.625767 0
-1.4419489 -5.4037313 1.6055975 0
-1.4472038 -5.4084997 1.5853488 0
-1.4497988 -5.4055371 1.5652481 0
-1.4504622 -5.3969998 1.5453334 0
-1.4519655 -5.3909154 1.525394 0
-1.4612172 -5.4071302 1.504596 0
-1.4631236 -5.4021907 1.4845815 0
-1.4686267 -5.4075575 1.464085 0
-1.4682784 -5.396184 1.4444251 0
-1.4738235 -5.4016399 1.4238633 0
-1.4771996 -5.4008965 1.4036237 0
-1.4801215 -5.3988585 1.3834579 0
-1.4848518 -5.4019346 1.3629189 0
-1.4877315 -5.3997622 1.342733 0
-1.4902254 -5.396502 1.3226329 0
-1.4976486 -5.4070897 1.301344 0
-1.4980377 -5.3979049 1.2817295 0
-3.259707 -9.8921289 -0.0067833662 0
-3.1842375 -9.6707039 -0.0064631701 0
-0.65505844 -2.9299884 1.2954836 0
-0.65841556 -2.9344375 1.2852116 0
-2.9775772 -9.0644789 -0.0053771734 0
-2.9177337 -8.8880358 -0.0067677498 0
-2.8551614 -8.7051716 -0.0051310062 0
-2.7979512 -8.5371914 -0.0051312447 0
-2.7480576 -8.3891144 -0.0081294775 0
-2.6925774 -8.227067 -0.0065095425 0
-2.6421189 -8.0788221 -0.0066772699 0
-2.5897965 -7.9263639 -0.0044527054 0
-2.5450172 -7.7941537 -0.0058377981 0
-0.59029359 -2.7137613 1.245978 0
-0.59055793 -2.7104836 1.2382782 0
-0.59129536 -2.7084305 1.2302659 0
-0.59338546 -2.7098567 1.2213187 0
-2.3309503 -7.1667795 -0.0036166906 0
-2.2982969 -7.0689321 -0.0073595047 0
-0.65011251 -2.8429737 1.1577945 0
-0.64905822 -2.8360159 1.1504586 0
-0.64584559 -2.8235872 1.1447687 0
-0.64437395 -2.8156216 1.1378465 0
-0.64943612 -2.8242242 1.1259544 0
-0.64917737 -2.8193324 1.118106 0
-0.64914823 -2.8150287 1.1100944 0
-0.64810848 -2.8081906 1.1029049 0
-0.64867145 -2.8053913 1.0944486 0
-0.65262014 -2.8110654 1.0832045 0
-0.65150374 -2.8040519 1.0761089 0
-0.65850413 -2.8172779 1.0621898 0
-0.65645784 -2.8079429 1.0558712 0
-0.66187644 -2.817148 1.0431358 0
-0.66495764 -2.820513 1.0323431 0
-0.66832387 -2.8245509 1.0212395 0
-0.67648906 -2.8403718 1.005753 0
-0.67915082 -2.8425834 0.99510944 0
-1.7549024 -5.4748435 -0.0046476126 0
-1.7349122 -5.415452 -0.0059679747 0
-1.7106712 -5.3459325 -0.0028223991 0
-1.6891549 -5.2833309 -0.001730442 0
-1.6730274 -5.2340693 -0.0053547621 0
-1.6535263 -5.1768289 -0.0053187609 0
-1.6316395 -5.1140547 -0.0024888515 0
-1.6125904 -5.0583797 -0.0020008087 0
-1.5994438 -5.0171261 -0.0070397854 0
-1.5790375 -4.9586091 -0.0043797493 0
-1.5602374 -4.9041772 -0.0029197931 0
-1.5443391 -4.856894 -0.0040634871 0
-1.5271622 -4.8067522 -0.0035070181 0
-1.5085218 -4.7533321 -0.0010153055 0
-1.4925423 -4.7064381 -0.00096726418 0
-1.477906 -4.6629066 -0.0020235777 0
-1.4626992 -4.6181993 -0.0021318197 0
-1.4495735 -4.578568 -0.0042057037 0
-1.4331818 -4.5314188 -0.0023440123 0
-1.4219534 -4.4965544 -0.0059444904 0
-1.4049017 -4.4482107 -0.0026706457 0
-1.3910296 -4.4074759 -0.0026777983 0
-1.3758192 -4.3637867 -0.00083124638 0
-1.3640542 -4.3282657 -0.0026870966 0
-1.350059 -4.2877173 -0.0016531944 0
-1.3380651 -4.2519488 -0.0027023554 0
-1.3269045 -4.2182355 -0.0044937134 0
-1.3140563 -4.1807718 -0.0039970875 0
-1.3021319 -4.1455712 -0.0043543577 0
-1.2890155 -4.1077805 -0.0029841661 0
-1.2778149 -4.0745063 -0.0037192106 0
-1.2659533 -4.0398545 -0.0033848286 0
-0.92804408 -3.2655659 0.41045105 0
-0.92743564 -3.2584972 0.40041888 0
-0.92292064 -3.2426152 0.39543247 0
-0.92011988 -3.2306433 0.38831306 0
-0.91674572 -3.2174129 0.38200152 0
-0.91860962 -3.2159555 0.36883795 0
-0.91320539 -3.198231 0.36531186 0
-0.9180814 -3.2034822 0.34809268 0
-0.91204929 -3.1844211 0.34552896 0
-0.766738 -2.8565323 0.53313816 0
-0.76459885 -2.8470068 0.52697527 0
-0.7636798 -2.8401949 0.51916265 0
-0.75861216 -2.8242605 0.51715922 0
-0.753474 -2.8082259 0.51535869 0
-0.82916534 -2.9692078 0.39899766 0
-0.82304978 -2.9506879 0.39792752 0
-0.81707382 -2.9325383 0.39678192 0
-0.81026328 -2.9126394 0.39696908 0
-0.80196142 -2.8895838 0.39947665 0
-0.79520118 -2.8699493 0.3998853 0
-0.79107893 -2.8560729 0.39651847 0
-0.73167127 -2.7234168 0.47586763 0
-0.72886193 -2.7127569 0.47128785 0
-0.72222054 -2.6939325 0.47257233 0
-0.76783335 -2.7865849 0.3941741 0
-0.75884473 -2.7626116 0.39876866 0
-0.75313026 -2.7456787 0.39847624 0
-0.74530804 -2.7243493 0.40158737 0
-0.74179316 -2.7121878 0.39809036 0
-0.73532355 -2.6938469 0.39933503 0
-0.73204601 -2.6822693 0.3956238 0
-0.72563308 -2.664166 0.39700305 0
-0.7167381 -2.640954 0.40252185 0
-0.71516722 -2.6330717 0.39631128 0
-0.7118839 -2.6216497 0.39292729 0
-0.70317739 -2.5990424 0.39854372 0
-0.69945443 -2.5868082 0.39606869 0
-0.69335276 -2.5697181 0.39763713 0
-0.68576092 -2.5496366 0.40183437 0
-0.68297195 -2.5394573 0.39805377 0
-0.67580134 -2.5203698 0.40178955 0
-0.67361164 -2.5114851 0.39712596 0
-0.66580737 -2.4912372 0.40219152 0
-0.65983105 -2.4747684 0.40424073 0
-0.65996087 -2.4706669 0.39572644 0
-0.65463555 -2.455595 0.39679849 0
-0.64851809 -2.4389908 0.39937794 0
-0.64544487 -2.4285316 0.39665127 0
-0.64113319 -2.4156342 0.39619982 0
-0.6347788 -2.3987238 0.39951897 0
-0.63107938 -2.387136 0.39814079 0
-0.62664098 -2.374125 0.39818084 0
-0.62301975 -2.362766 0.39680123 0
-0.61731988 -2.3473644 0.39933574 0
-0.61385584 -2.3363941 0.39781761 0
-0.60762978 -2.3200722 0.40153861 0
-0.60665214 -2.3140142 0.39548445 0
-0.59926194 -2.2955375 0.40160489 0
-0.5953356 -2.2838292 0.40126336 0
-0.59242392 -2.2741113 0.39904404 0
-0.59030157 -2.2659333 0.395347 0
-0.5832988 -2.2484379 0.40117109 0
-0.57952517 -2.2371736 0.40082121 0
-0.57430804 -2.2232029 0.40338099 0
-0.57331467 -2.2172847 0.39767992 0
-0.57074201 -2.2083869 0.39512742 0
-0.56420296 -2.1920478 0.40056157 0
-0.56171656 -2.1833785 0.39796162 0
-0.55703318 -2.1706231 0.39985323 0
-0.55298883 -2.1591051 0.40053165 0
-0.5530166 -2.1551852 0.39293134 0
-0.54326952 -2.1331713 0.40547788 0
-0.54495907 -2.1323524 0.39449966 0
-0.53649628 -2.112849 0.40465188 0
-0.53566188 -2.1074066 0.39896858 0
-0.53040552 -2.0938959 0.40262091 0
-0.52901292 -2.0874639 0.39817071 0
-0.52702564 -2.0799601 0.39500082 0
-0.52153182 -2.0661399 0.39939022 0
-0.52193904 -2.0629909 0.39113796 0
-0.52610475 -2.0665579 0.37468112 0
-0.52291656 -2.0569282 0.37417126 0
-0.52593696 -2.0583701 0.36006522 0
-0.52925581 -2.0602872 0.34519804 0
-0.53027207 -2.0580812 0.33534014 0
-0.53379357 -2.0602539 0.31982768 0
-0.53438514 -2.0572307 0.31078637 0
-0.67108846 -2.2917755 -0.0061099529 0
-0.66834724 -2.2819979 -0.0093935728 0
-0.66022027 -2.2629094 -0.00032651424 0
-0.66065204 -2.2586784 -0.010770202 0
-0.65374148 -2.2418039 -0.0042812824 0
-0.64855921 -2.2279627 -0.0016695261 0
-0.64208472 -2.2119694 0.0040608644 0
-0.63808221 -2.200243 0.004109621 0
-0.63709867 -2.1936569 -0.0029145479 0
-0.63198519 -2.1801088 -0.00012981892 0
-0.62712115 -2.1670294 0.0021539927 0
-0.62372369 -2.1564469 0.001001358 0
-0.61935925 -2.1442833 0.0022382736 0
-0.61505926 -2.1322665 0.0033946037 0
-0.61449802 -2.1264553 -0.0045131445 0
-0.60765415 -2.1103141 0.0029965639 0
-0.60625172 -2.1031451 -0.0027986765 0
-0.60203254 -2.0913892 -0.0015970469 0
-0.5972625 -2.0787797 0.001054883 0
-0.59435719 -2.0692248 -0.00089049339 0
-0.59022248 -2.0577152 0.00030720234 0
-0.58764285 -2.0487297 -0.0023730993 0
-0.58380067 -2.0377493 -0.0018010139 0
-0.57964456 -2.0263054 -0.00035893917 0
-0.57305455 -2.0110624 0.0074403286 0
-0.57234651 -2.0051234 0.00010919571 0
-0.56895751 -1.9949841 -0.00024855137 0
-0.5656569 -1.9850097 -0.00078690052 0
-0.56310248 -1.9762142 -0.003246665 0
-0.5582267 -1.9638603 0.00048053265 0
-0.55574238 -1.9552184 -0.002078414 0
-0.55177319 -1.9443269 -0.00062978268 0
-0.55057752 -1.9376763 -0.0065939426 0
-0.54408383 -1.9230274 0.0017975569 0
-0.54414868 -1.9182949 -0.0075528622 0
-0.5360114 -1.9012924 0.0055341721 0
-0.53431463 -1.8939545 0.0010595322 0
-0.53202951 -1.8857477 -0.0017840862 0
-0.53105271 -1.8794723 -0.0082557201 0
-0.52494311 -1.8656875 -0.0003657341 0
-0.52085102 -1.8549042 0.0019744635 0
-0.52182853 -1.8514839 -0.009973526 0
-0.51626587 -1.8386242 -0.0033761263 0
-0.51230568 -1.8281167 -0.0012482405 0
-0.50965726 -1.8195083 -0.002828598 0
-0.50681978 -1.8106484 -0.0038323402 0
-0.50131619 -1.7980648 0.0029597282 0
-0.49829227 -1.7890037 0.0026135445 0
-0.49374205 -1.7778475 0.0068000555 0
-0.49087286 -1.7690554 0.0061016083 0
-0.49093324 -1.7642946 -0.0032770634 0
-0.48914433 -1.7569854 -0.0071833134 0
-0.48544967 -1.7470994 -0.005355835 0
-0.48181176 -1.7373224 -0.0036376715 0
-0.47873163 -1.7283225 -0.0035541058 0
-0.47690153 -1.7210023 -0.0072513819 0
-0.47130603 -1.7087233 0.00063192844 0
-0.47016662 -1.7023408 -0.0051361322 0
-0.46811783 -1.6947649 -0.008100152 0
-0.46372688 -1.6841712 -0.0037331581 0
-0.46275437 -1.6780028 -0.010025382 0
-0.45909858 -1.6684062 -0.0078647137 0
-0.45601857 -1.6595695 -0.0074719191 0
-0.45334178 -1.6512613 -0.0083242655 0
-0.44833684 -1.6400719 -0.0016646385 0
-0.44532752 -1.6314056 -0.0013426542 0
-0.44234389 -1.622792 -0.0010634661 0
-0.4406997 -1.6158274 -0.0051224232 0
-0.43577993 -1.6049093 0.0015773773 0
-0.43636149 -1.6006287 -0.0097960234 0
-0.43099141 -1.5892409 -0.0014772415 0
-0.42783785 -1.5805281 -0.00043880939 0
-0.4217695 -1.5684409 0.010445833 0
-0.4223375 -1.56411 -0.00094783306 0
-0.4220252 -1.5587205 -0.0094430447 0
-0.41682488 -1.5477451 -0.0012873411 0
-0.41480172 -1.5404131 -0.0039304495 0
-0.4101668 -1.5301702 0.0024629831 0
-0.40739864 -1.5220457 0.0024694204 0
-0.40613818 -1.5155888 -0.0027652979 0
-0.40180814 -1.50579 0.0027717352 0
0.047945268 -1.0180523 1.5846144 0
0.050072469 -1.0154945 1.5916191 0
0.049076512 -1.0162641 1.5875268 0
0.050551381 -1.0144387 1.5922848 0
0.048575222 -1.0161961 1.584602 0
0.051349942 -1.0130693 1.5941372 0
0.047459453 -1.0167145 1.5793639 0
0.048161652 -1.015696 1.5813456 0
0.0462818 -1.0172323 1.5737798 0
0.046763211 -1.0164255 1.5749321 0
0.047743108 -1.0151477 1.5779699 0
0.044127282 -1.018253 1.5637028 0
0.046334393 -1.0158104 1.5713723 0
0.045150992 -1.0165552 1.5661874 0
0.043700233 -1.0175126 1.5599148 0
0.046511017 -1.0145901 1.5700396 0
0.045139026 -1.0154516 1.5640244 0
0.047957335 -1.0126026 1.5743304 0
0.047226053 -1.0128875 1.5707934 0
0.045921527 -1.0136385 1.5649445 0
0.046176314 -1.013045 1.5652384 0
0.048122369 -1.011058 1.5723172 0
0.048216324 -1.010623 1.572015 0
0.047788061 -1.0106044 1.5695912 0
0.04836233 -1.0097824 1.5712328 0
0.048073653 -1.009639 1.5693505 0
0.047800884 -1.0094719 1.5675118 0
0.04852467 -1.0085506 1.5697985 0
0.048121281 -1.0084699 1.5673954 0
0.047628291 -1.0084381 1.5645858 0
0.049456786 -1.0067556 1.5715874 0
0.046359859 -1.0085146 1.5576571 0
0.048657391 -1.0065414 1.5667224 0
0.04816971 -1.0064685 1.5638642 0
0.048277453 -1.0059928 1.5635616 0
0.047862481 -1.0058451 1.5609667 0
0.048185624 -1.0052264 1.5615937 0
0.047993731 -1.0049214 1.5599444 0
0.047452033 -1.0048102 1.5567122 0
