# .PCD v0.7 - Point Cloud Data file format
VERSION 0.7
FIELDS x y z rgb
SIZE 4 4 4 4
TYPE F F F F
COUNT 1 1 1 1
WIDTH 1335
HEIGHT 1
VIEWPOINT 0 0 0 1 0 0 0
POINTS 1335
DATA ascii
0.21137938 -2.1881661 0.94686526 0
0.20515525 -2.1903446 0.94735408 0
0.19746999 -2.184314 0.95241278 0
0.19351099 -2.1994741 0.94568658 0
0.18632856 -2.196172 0.94922191 0
0.18088949 -2.2033243 0.94696754 0
0.17445242 -2.2044845 0.94803149 0
0.16765314 -2.2032394 0.95041734 0
0.14201419 -2.073633 1.02323 0
0.1355724 -2.0699947 1.0267465 0
0.13026245 -2.074261 1.0259334 0
0.12497197 -2.0789039 1.0249228 0
0.11942002 -2.0817575 1.0248939 0
0.11295444 -2.0772569 1.028857 0
0.1069933 -2.0765841 1.0307348 0
0.10146256 -2.0795887 1.0306232 0
0.096291706 -2.0861232 1.0286154 0
0.089544848 -2.0777686 1.03462 0
0.082945272 -2.0699713 1.040302 0
0.077556506 -2.0743346 1.0394597 0
0.071742877 -2.0742166 1.041016 0
0.065663591 -2.0707507 1.0443511 0
0.060265437 -2.0754864 1.0433209 0
0.054356262 -2.0737128 1.0457478 0
0.048842475 -2.0773671 1.0452998 0
0.04518576 -2.1108727 1.0291232 0
0.041126296 -2.1429021 1.0138044 0
0.037058935 -2.1804416 0.99567252 0
0.032546565 -2.2161267 0.97860277 0
0.027502432 -2.2473466 0.96395075 0
0.021896049 -2.2716455 0.95297956 0
0.015265569 -2.2724996 0.95424962 0
0.0091210157 -2.2899742 0.94690329 0
0.0022960156 -2.2861347 0.95062119 0
-0.0043050796 -2.2914195 0.94962007 0
-0.01093246 -2.2978265 0.94805223 0
-0.017705426 -2.2950981 0.95118928 0
-0.024372026 -2.3063028 0.94718051 0
-0.031142667 -2.3090816 0.94750333 0
-0.037950471 -2.3158374 0.94580376 0
-0.044741526 -2.3144205 0.94827539 0
-0.051574662 -2.317435 0.94849372 0
-0.058478907 -2.3230534 0.94740015 0
-0.065370753 -2.3261037 0.94761533 0
-0.072240487 -2.3275335 0.9486528 0
-0.079199359 -2.3314157 0.94846034 0
-0.086365625 -2.3399568 0.94594085 0
-0.093248114 -2.3400071 0.94768643 0
-0.099905059 -2.3353636 0.95177186 0
-0.10778989 -2.3552992 0.94361615 0
-0.11413912 -2.3448634 0.95058161 0
-0.12141483 -2.3511918 0.9492209 0
-0.12844957 -2.3530233 0.95009559 0
-0.13542514 -2.3538184 0.9514845 0
-0.143474 -2.3687518 0.94592655 0
-0.1505058 -2.3692982 0.94745708 0
-0.15732323 -2.3672917 0.9502365 0
-0.1654097 -2.3796558 0.94600093 0
-0.17244287 -2.3796585 0.94780958 0
-0.17927928 -2.3776917 0.95057356 0
-0.18781008 -2.3922203 0.94534647 0
-0.19422446 -2.3860188 0.95016551 0
-0.20210497 -2.3932714 0.9484883 0
-0.20907487 -2.3922393 0.95080918 0
-0.21682461 -2.3976381 0.95004541 0
-0.22565033 -2.411073 0.94545305 0
-0.2318597 -2.4037681 0.95078295 0
-0.24077629 -2.4167228 0.94645917 0
-0.24862601 -2.4212799 0.94615114 0
-0.25470179 -2.4134247 0.95172781 0
-0.26346922 -2.4238544 0.94865566 0
-0.27219063 -2.4333482 0.94604981 0
-0.27842492 -2.4267862 0.95100671 0
-0.28840607 -2.4432468 0.94516563 0
-0.29477799 -2.4375567 0.94971257 0
-0.30307603 -2.4431765 0.94897687 0
-0.3116259 -2.4498868 0.94774902 0
-0.31829548 -2.4460285 0.95143658 0
-0.32657683 -2.4508739 0.9510923 0
-0.33653527 -2.4641159 0.94688988 0
-0.34516281 -2.4699998 0.94610411 0
-0.35318553 -2.4726107 0.9468348 0
-0.36219412 -2.4798193 0.94547033 0
-0.36977983 -2.4799933 0.94733363 0
-0.37857729 -2.4857061 0.94667906 0
-0.38606334 -2.4852474 0.9488399 0
-0.871831 -4.5915885 -0.0022565126 0
-0.89319664 -4.6076722 -0.0049751997 0
-0.91296583 -4.6162877 -0.0042891502 0
-0.935682 -4.6367116 -0.0088773966 0
-0.95139593 -4.6278162 -0.00028908253 0
-0.97347349 -4.6445551 -0.0031592846 0
-0.9945156 -4.6565466 -0.003870368 0
-1.0151669 -4.6665215 -0.0036518574 0
-1.0350652 -4.6732206 -0.0019536018 0
-1.0561682 -4.684063 -0.0020619631 0
-1.0783762 -4.6984711 -0.0037077665 0
-1.1001897 -4.7108884 -0.0044380426 0
-1.1226602 -4.7251163 -0.0059241056 0
-1.1412215 -4.7252731 -0.0012277365 0
-1.1650956 -4.7434001 -0.0043445826 0
-1.1843537 -4.7454181 -0.00041937828 0
-1.2091527 -4.7655172 -0.004306078 0
-1.23101 -4.7753692 -0.003714323 0
-1.2536403 -4.7872896 -0.0039805174 0
-1.2749289 -4.7945409 -0.0022064447 0
-1.2973651 -4.8050294 -0.0017910004 0
-1.3206674 -4.81775 -0.0022931099 0
-1.3433481 -4.8281369 -0.001762867 0
-1.3668214 -4.8404689 -0.0020223856 0
-1.3901542 -4.8519416 -0.0018789768 0
-1.4173428 -4.874073 -0.0061889887 0
-1.4403661 -4.8836808 -0.0051723719 0
-1.4611658 -4.8867059 -0.0013650656 0
-1.4872842 -4.9042077 -0.0035851002 0
-1.5130564 -4.9201932 -0.0051194429 0
-1.536423 -4.9291906 -0.0037027597 0
-1.5586427 -4.9348073 -0.00085401535 0
-1.5841342 -4.9487205 -0.0014019012 0
-0.86718881 -3.0466223 0.78585583 0
-0.86564583 -3.015192 0.80151612 0
-0.81102806 -2.8510137 0.87133735 0
-0.81157291 -2.827879 0.88329679 0
-0.81851351 -2.8209505 0.8886227 0
-0.82660133 -2.816916 0.89276528 0
-0.83050305 -2.8029056 0.90092713 0
-0.84288341 -2.8092265 0.90088379 0
-0.84912997 -2.8010097 0.90668929 0
-0.86157411 -2.8072412 0.90670818 0
-0.86095887 -2.783469 0.91869473 0
-0.85695297 -2.7525418 0.93346429 0
-0.85964805 -2.7372105 0.94199049 0
-0.86050421 -2.7181177 0.95196509 0
-0.8608253 -2.6982331 0.96220648 0
-0.8593117 -2.6747837 0.97379708 0
-0.85255176 -2.6406164 0.9895131 0
-0.85539204 -2.6273828 0.99700499 0
-0.85512817 -2.6079109 1.0068851 0
-0.85780525 -2.5948718 1.0142355 0
-0.85592347 -2.5727572 1.0250494 0
-0.85690695 -2.556843 1.0334327 0
-0.85679656 -2.5390279 1.042506 0
-0.85734206 -2.5228288 1.0509224 0
-0.85494721 -2.5011625 1.061375 0
-0.85311133 -2.4809742 1.0712166 0
-0.85367441 -2.4657428 1.079143 0
-0.8500573 -2.4428432 1.0899113 0
-0.84992677 -2.4268997 1.0980232 0
-0.86114842 -2.4323192 1.0981423 0
-0.87506717 -2.4425404 1.0965022 0
-0.88617593 -2.4473896 1.0968838 0
-0.89516157 -2.4482615 1.0987507 0
-0.90432805 -2.4493864 1.1005349 0
-0.92157507 -2.4647255 1.0971369 0
-0.9330098 -2.4695351 1.0976224 0
-0.94686913 -2.4784029 1.0966586 0
-0.95763129 -2.4817257 1.0977306 0
-0.96904129 -2.4860315 1.0984672 0
-0.97976857 -2.4890494 1.099686 0
-0.99856931 -2.5054336 1.0961537 0
-1.0043849 -2.4999759 1.1004387 0
-1.0155612 -2.503346 1.1015933 0
-1.0326996 -2.5162752 1.0993984 0
-1.0482227 -2.5263095 1.0982667 0
-1.0611832 -2.5320158 1.0986867 0
-1.0781283 -2.5438514 1.0970008 0
-1.0905025 -2.5482571 1.0979345 0
-1.1026039 -2.5520988 1.0990862 0
-1.1199797 -2.5639162 1.0975204 0
-1.1368005 -2.574614 1.0963836 0
-1.1474552 -2.5757484 1.0985461 0
-1.1647919 -2.5867972 1.097363 0
-1.1752551 -2.5873904 1.0997525 0
-1.1938083 -2.5998025 1.098186 0
-1.2038865 -2.5995793 1.1008937 0
-1.2265984 -2.6175456 1.0975597 0
-1.2428019 -2.6258109 1.097507 0
-1.2595181 -2.634593 1.0973221 0
-1.2709577 -2.6357257 1.0996873 0
-1.2980573 -2.6586263 1.0949618 0
-1.3099684 -2.6600461 1.0973016 0
-1.3194213 -2.6579967 1.1007813 0
-1.3400501 -2.671114 1.0993887 0
-1.3603141 -2.6834438 1.0983043 0
-1.3847808 -2.7011142 1.0955732 0
-1.3978999 -2.7033601 1.0978019 0
-1.4140356 -2.7094603 1.0988379 0
-1.4386153 -2.7263963 1.096511 0
-4.1891031 -6.2693739 -0.0057280064 0
-4.2486076 -6.3012462 -0.0066978931 0
-4.3076758 -6.3318024 -0.0071076155 0
-4.3683825 -6.3636861 -0.0077739954 0
-4.4189262 -6.3820863 -0.0041671991 0
-4.4915013 -6.4272923 -0.0085853338 0
-4.5504794 -6.4547715 -0.0074465275 0
-4.6148462 -6.4881358 -0.0079269409 0
-4.6766682 -6.5176229 -0.0070822239 0
-4.7452898 -6.5545459 -0.0082861185 0
-4.8059616 -6.5811386 -0.0062584877 0
-4.8743 -6.6161036 -0.006534934 0
-4.9420772 -6.6495814 -0.0061963797 0
-5.0123811 -6.6851926 -0.0062969923 0
-5.092011 -6.730721 -0.0090643167 0
-5.1601524 -6.762094 -0.0075563192 0
-5.2353063 -6.8006492 -0.0079133511 0
-5.3042984 -6.8313642 -0.0058499575 0
-5.3861847 -6.8757124 -0.0074340105 0
-5.4684405 -6.9194751 -0.0086237192 0
-5.5437436 -6.9545989 -0.0071892738 0
-5.6229386 -6.993114 -0.006485343 0
-5.7056427 -7.0345154 -0.0063530207 0
-5.7947755 -7.0818572 -0.0076016188 0
-5.8807068 -7.1247296 -0.0073903799 0
-5.972085 -7.1723676 -0.0082122087 0
-6.058116 -7.2133236 -0.0069963932 0
-6.1489091 -7.258266 -0.00659132 0
-6.2529135 -7.3158131 -0.0092264414 0
-6.3475599 -7.3625307 -0.0087370872 0
-6.4460726 -7.4121051 -0.0087120533 0
-6.5436554 -7.4596171 -0.0078727007 0
-6.6507063 -7.5155067 -0.008877039 0
-6.7546396 -7.5670662 -0.0084712505 0
-6.8646584 -7.6234527 -0.0089651346 0
-6.9705992 -7.6746001 -0.007832408 0
-7.0855284 -7.7332902 -0.0082401037 0
-7.2014875 -7.7916746 -0.0082257986 0
-7.3167462 -7.8480873 -0.0073851347 0
-7.4424806 -7.9131503 -0.0082677603 0
-7.5745578 -7.9827595 -0.0098408461 0
-7.7042103 -8.0486126 -0.010118842 0
-7.8412495 -8.1198568 -0.011250138 0
-7.9722524 -8.1840229 -0.010318398 0
-8.1043911 -8.2477903 -0.0088909864 0
-8.2468691 -8.3194723 -0.008846283 0
-8.402997 -8.4018335 -0.010744452 0
-8.5433273 -8.4683905 -0.0086344481 0
-8.7103043 -8.5569801 -0.01092267 0
-8.8647432 -8.6327229 -0.0098747015 0
-9.0329819 -8.7188005 -0.010554671 0
-9.1908855 -8.7941217 -0.0083992481 0
-9.3801756 -8.8946304 -0.011034846 0
-9.5575981 -8.982975 -0.010510087 0
-9.7423782 -9.075613 -0.010285139 0
-9.9302082 -9.1688156 -0.0095636845 0
0.34731174 -1.9604034 1.0460265 0
0.33940417 -1.9548805 1.0507611 0
0.33303472 -1.9535959 1.053005 0
0.3282814 -1.9569921 1.0525188 0
0.32261708 -1.9576914 1.0536005 0
0.31635728 -1.9565251 1.055758 0
0.31049955 -1.9565048 1.0572455 0
0.30523276 -1.9582913 1.0576875 0
0.29843119 -1.9551241 1.0609745 0
0.29350027 -1.9579189 1.0608315 0
0.28937763 -1.9634507 1.0591267 0
0.27934021 -1.9489858 1.068835 0
0.27329323 -1.947751 1.0709729 0
0.26966116 -1.9549348 1.0683248 0
0.26829776 -1.9704988 1.0609467 0
0.26414022 -1.9763465 1.059094 0
0.25953051 -1.980665 1.0581141 0
0.25338367 -1.9792173 1.0603826 0
0.24855445 -1.9827778 1.0598341 0
0.24393527 -1.9872541 1.0587782 0
0.24343733 -2.0086064 1.04831 0
0.24163227 -2.0253863 1.0404401 0
0.24052174 -2.0457864 1.0305989 0
0.24063395 -2.0723424 1.0173949 0
0.24126442 -2.1023486 1.0023485 0
0.24131165 -2.1310375 0.98810267 0
0.23914878 -2.1507347 0.97887552 0
0.23740886 -2.1733334 0.9681021 0
0.23836036 -2.2101402 0.9496007 0
0.23643856 -2.2343414 0.93807822 0
0.23745595 -2.2748492 0.91772377 0
0.23552246 -2.3018513 0.9048146 0
0.37005207 -3.0712631 0.48914409 0
0.20832093 -2.2298565 0.94739515 0
0.20217365 -2.2334025 0.94718629 0
0.19547878 -2.2338238 0.9486658 0
0.1890112 -2.2355611 0.94943511 0
0.18208687 -2.2344377 0.95173889 0
0.17672993 -2.2433245 0.94868094 0
0.14476806 -2.0740891 1.0407076 0
0.13925408 -2.076745 1.0407805 0
0.13291776 -2.0735848 1.0439466 0
0.12776135 -2.0789025 1.0426089 0
0.12161382 -2.0768576 1.0451739 0
0.11566484 -2.0761538 1.0470235 0
0.11002195 -2.0778625 1.047599 0
0.10379259 -2.0744884 1.0508443 0
0.099311307 -2.0866954 1.0459181 0
0.09206681 -2.0734913 1.0542964 0
0.086788461 -2.0786326 1.0530769 0
0.08095549 -2.0783379 1.0546944 0
0.074741378 -2.0736542 1.0585854 0
0.068691596 -2.0702558 1.0617975 0
0.063235745 -2.0737441 1.0614429 0
0.057121199 -2.0687995 1.0654383 0
0.051711302 -2.0730646 1.0646867 0
0.048280161 -2.1080365 1.0482008 0
0.044947308 -2.1500621 1.0281907 0
0.04004861 -2.1711583 1.0189595 0
0.036194336 -2.2165458 0.9974128 0
0.032096636 -2.2659392 0.97394007 0
0.026794504 -2.2975087 0.9596144 0
0.021113466 -2.3267658 0.94653165 0
0.014172476 -2.3249683 0.94917405 0
0.0074172728 -2.3290987 0.94882858 0
0.00079492852 -2.3406198 0.94478279 0
-0.0061924644 -2.3370812 0.94830072 0
-0.013061333 -2.3396316 0.9487679 0
-0.01993053 -2.3442914 0.94818842 0
-0.026856918 -2.3426323 0.95075864 0
-0.033775974 -2.3502724 0.94871306 0
-0.040713627 -2.3505051 0.95034754 0
-0.047745544 -2.3595548 0.94763112 0
-0.054703314 -2.3589015 0.94971013 0
-0.061550427 -2.3534572 0.95413822 0
-0.068972871 -2.3729687 0.94632989 0
-0.076036647 -2.3745844 0.94730973 0
-0.083305821 -2.3818059 0.94556034 0
-0.090175375 -2.3773103 0.94952345 0
-0.097634986 -2.3872092 0.94649369 0
-0.10458182 -2.3848157 0.94943333 0
-0.11145131 -2.3814719 0.95282495 0
-0.1193019 -2.3955283 0.94783098 0
-0.12690954 -2.4036906 0.94570011 0
-0.13391973 -2.4019592 0.9483273 0
-0.14222758 -2.4183774 0.94227695 0
-0.14861949 -2.4080312 0.94902223 0
-0.15597524 -2.41066 0.94957328 0
-0.163482 -2.4147696 0.94942755 0
-0.17036773 -2.4116795 0.95269752 0
-0.1782829 -2.4196205 0.95075399 0
-0.18525897 -2.4175181 0.95355654 0
-0.19379292 -2.430377 0.9493292 0
-0.20155074 -2.4351029 0.94894105 0
-0.21034859 -2.4484985 0.94451392 0
-0.21827616 -2.4535651 0.94399971 0
-0.22467254 -2.4459293 0.94940144 0
-0.23391928 -2.4609425 0.94428492 0
-0.24076973 -2.4569724 0.94798255 0
-0.2483388 -2.4584558 0.94915551 0
-0.25552931 -2.45719 0.95159715 0
-0.26495752 -2.4711304 0.94705874 0
-0.2715894 -2.4658666 0.95134306 0
-0.2801384 -2.4730971 0.94991183 0
-0.28815606 -2.4766119 0.95019025 0
-0.29725182 -2.4863808 0.94763756 0
-0.30573344 -2.4920115 0.9469831 0
-0.31356889 -2.4936523 0.94814533 0
-0.32159105 -2.4962189 0.94889528 0
-0.32961759 -2.4986598 0.9497087 0
-0.33894274 -2.5077822 0.94753474 0
-0.34744406 -2.5122144 0.94747984 0
-0.35625389 -2.5179586 0.94685197 0
-0.36435741 -2.5199559 0.94790494 0
-0.37371868 -2.5278509 0.94634897 0
-0.38075319 -2.5244906 0.9497903 0
-0.38928762 -2.5281091 0.95014757 0
-0.88008046 -4.6905684 0.0010430813 0
-0.90203965 -4.7077389 -0.0019372702 0
-0.92155373 -4.713635 5.9247017e-05 0
-0.94239056 -4.7247934 -0.00022149086 0
-0.96483147 -4.7420545 -0.0031254292 0
-0.98608828 -4.7537842 -0.0035837889 0
-1.0064772 -4.7615499 -0.002294302 0
-1.0280573 -4.7735872 -0.002823472 0
-1.0472862 -4.7761135 0.00077295303 0
-1.0706729 -4.7940803 -0.0022423267 0
-1.0931844 -4.8081031 -0.0035219193 0
-1.1130062 -4.811801 -0.00035703182 0
-1.1343832 -4.8208289 0.00055539608 0
-1.1596471 -4.8430772 -0.0041108131 0
-1.1787009 -4.8431087 0.00067937374 0
-1.2058865 -4.8706007 -0.0061039925 0
-1.2248025 -4.8695464 -0.00081002712 0
-1.2506365 -4.8911295 -0.0050023794 0
-1.2732217 -4.9014502 -0.0044265985 0
-1.2936827 -4.9046011 -0.00082933903 0
-1.31911 -4.9231095 -0.0035988092 0
-1.340783 -4.9293852 -0.0012459755 0
-1.3623487 -4.9350476 0.0013839006 0
-1.3901408 -4.959084 -0.0035319328 0
-1.4141737 -4.9712324 -0.0034976006 0
-1.4372752 -4.9802203 -0.0021303892 0
-1.4605056 -4.9892187 -0.00073575974 0
-1.4868951 -5.0067935 -0.0027992725 0
-1.5092834 -5.0126171 -4.2080879e-05 0
-1.5375723 -5.0344057 -0.0037170649 0
-1.5608202 -5.0418177 -0.0015311241 0
-1.5904475 -5.0660033 -0.0060579777 0
-1.6140658 -5.0735598 -0.0038501024 0
-1.6352276 -5.0743985 0.0010712147 0
-0.78541881 -2.8325629 0.89900672 0
-0.79472625 -2.8315246 0.90186942 0
-0.79369968 -2.8045197 0.9150089 0
-0.80986691 -2.8207512 0.91103333 0
-0.81548196 -2.8106945 0.91743922 0
-0.82577121 -2.8121309 0.91932166 0
-0.83073097 -2.800745 0.92622173 0
-0.84415501 -2.8095539 0.92523694 0
-0.85424161 -2.8103142 0.92740381 0
-0.85821724 -2.7969139 0.93505508 0
-0.85946321 -2.7775502 0.94497645 0
-0.85808551 -2.7526686 0.95697391 0
-0.85867894 -2.7326868 0.96703738 0
-0.8549006 -2.70348 0.9805752 0
-0.85978532 -2.6937251 0.98664701 0
-0.8588171 -2.6715379 0.99741095 0
-0.85525072 -2.6442564 1.010047 0
-0.85719228 -2.6291096 1.0180516 0
-0.85911465 -2.6141973 1.0259352 0
-0.85291922 -2.5828357 1.0399325 0
-0.85355759 -2.5660124 1.0484402 0
-0.85648179 -2.5540993 1.0550884 0
-0.85470736 -2.5330138 1.0651023 0
-0.8567096 -2.5197675 1.0721793 0
-0.85415506 -2.4978449 1.0824118 0
-0.85315895 -2.4793334 1.0913451 0
-0.85202825 -2.4608898 1.1002104 0
-0.86715776 -2.4735553 1.0977424 0
-0.87647617 -2.4750209 1.0993657 0
-0.88856697 -2.4815474 1.0991771 0
-0.90259683 -2.4914515 1.0978019 0
-0.91276264 -2.494077 1.0990634 0
-0.92706567 -2.5040455 1.0977249 0
-0.94155049 -2.5140879 1.0963959 0
-0.9497968 -2.5128624 1.0990838 0
-0.96472687 -2.5232916 1.0976751 0
-0.97042376 -2.5174718 1.1019994 0
-0.98789823 -2.5319078 1.0992445 0
-1.0007553 -2.538166 1.0993823 0
-1.0128603 -2.5429814 1.1000464 0
-1.0251418 -2.5479407 1.1006835 0
-1.0394114 -2.5560305 1.1002688 0
-1.0560459 -2.5677788 1.0986354 0
-1.0681322 -2.5718746 1.0996517 0
-1.0811011 -2.577251 1.1002553 0
-1.1007676 -2.5931256 1.0973396 0
-1.1114798 -2.5945256 1.0993468 0
-1.1275584 -2.6042223 1.0985911 0
-1.1412559 -2.6099923 1.0991831 0
-1.1523924 -2.6116619 1.1011636 0
-1.1676177 -2.6194546 1.1011374 0
-1.1868452 -2.6330752 1.0992291 0
-1.2044293 -2.6439319 1.0982778 0
-1.2138202 -2.6423938 1.1014094 0
-1.2345046 -2.657393 1.0991848 0
-1.2489258 -2.6629455 1.1000671 0
-1.2695682 -2.6773047 1.0981494 0
-1.2829996 -2.6810317 1.0996879 0
-1.3018516 -2.6923065 1.0988488 0
-1.320208 -2.7026172 1.0983632 0
-1.3405498 -2.7154438 1.0971299 0
-1.3537844 -2.7181568 1.0991218 0
-1.370715 -2.7258105 1.0995947 0
-1.3957118 -2.7442136 1.0967689 0
-1.4138942 -2.7530506 1.0969703 0
-1.4318879 -2.7614076 1.0973624 0
-4.1715574 -6.3736224 -0.003818512 0
-4.2262192 -6.3995552 -0.0028978586 0
-4.2837982 -6.4286137 -0.002792716 0
-4.3444853 -6.4609632 -0.0035361052 0
-4.4020324 -6.4885106 -0.0026890039 0
-4.4647942 -6.5219784 -0.0034643412 0
-4.5282474 -6.5555162 -0.0040996075 0
-4.5890522 -6.5849409 -0.003362298 0
-4.6590734 -6.6250458 -0.0055994987 0
-4.7150574 -6.6469855 -0.0023642778 0
-4.7837105 -6.6837449 -0.0032869577 0
-4.8495617 -6.7162538 -0.0028067827 0
-4.9204197 -6.7539692 -0.003647089 0
-4.9884095 -6.7873888 -0.003079772 0
-5.0663567 -6.8317409 -0.0054248571 0
-5.1262569 -6.8539743 -0.0013481379 0
-5.2043171 -6.8966465 -0.002831459 0
-5.285892 -6.9423957 -0.0049546957 0
-5.3556118 -6.9735765 -0.0028401613 0
-5.4323435 -7.0119076 -0.0025047064 0
-5.5149326 -7.055912 -0.0035065413 0
-5.5923204 -7.0931096 -0.0024431944 0
-5.6808658 -7.1417503 -0.0042430162 0
-5.7629776 -7.1822443 -0.0036236048 0
-5.8489342 -7.2259636 -0.0036346912 0
-5.9375553 -7.2715464 -0.0038983822 0
-6.0233111 -7.3130102 -0.0028409958 0
-6.1171136 -7.3620429 -0.0035096407 0
-6.2124863 -7.4116211 -0.0040525198 0
-6.2984824 -7.4502621 -0.0015339851 0
-6.4045939 -7.5088339 -0.0038309097 0
-6.5064702 -7.5617695 -0.0043994188 0
-6.6053052 -7.6104064 -0.0036020279 0
-6.7152948 -7.6692276 -0.0050441027 0
-6.8175669 -7.7189903 -0.0039389133 0
-6.9261045 -7.7738519 -0.0037825108 0
-7.0390029 -7.8317909 -0.0040534735 0
-7.151125 -7.8876724 -0.0034993887 0
-7.2718835 -7.9507055 -0.0043150187 0
-7.3845568 -8.004529 -0.0026010275 0
-7.5124173 -8.071681 -0.0036689043 0
-7.6381273 -8.1353197 -0.003536582 0
-7.7657299 -8.1993313 -0.0031114817 0
-7.8965535 -8.2649317 -0.0026625395 0
-8.0425768 -8.3432083 -0.004668951 0
-8.176816 -8.4089422 -0.0034246445 0
-8.3241615 -8.485198 -0.0040949583 0
-8.4677668 -8.5564022 -0.0032024384 0
-8.6250677 -8.6383696 -0.0041955709 0
-8.7827969 -8.7189608 -0.0043981075 0
-8.9414377 -8.7986116 -0.003903985 0
-9.1092033 -8.8845549 -0.0042301416 0
-9.2796268 -8.9709644 -0.0041182041 0
-9.4568129 -9.0613689 -0.0042816401 0
-9.6393805 -9.1544533 -0.0044178963 0
-9.8153114 -9.2398796 -0.0024280548 0
0.34711128 -1.9570019 1.0683554 0
0.34377789 -1.964402 1.0656276 0
0.33583632 -1.9585898 1.0703605 0
0.33067051 -1.9607174 1.0706083 0
0.32151774 -1.950887 1.0775636 0
0.31892902 -1.9606898 1.0735018 0
0.31420302 -1.9641287 1.0730135 0
0.30536121 -1.954632 1.0797325 0
0.29934904 -1.953825 1.0815942 0
0.29389301 -1.9547415 1.0824933 0
0.287826 -1.9535944 1.0845313 0
0.28327483 -1.957473 1.0837893 0
0.27587721 -1.9516141 1.0884113 0
0.26940802 -1.9487319 1.0913792 0
0.26867065 -1.9661939 1.0831933 0
0.26724616 -1.9817584 1.0760853 0
0.26111376 -1.9803512 1.078264 0
0.25499985 -1.9788904 1.0804636 0
0.24767116 -1.972599 1.0852759 0
0.24293798 -1.9762371 1.0846938 0
0.24320146 -2.0001223 1.073185 0
0.24243477 -2.0207167 1.0635054 0
0.24081725 -2.0385573 1.0553542 0
0.2411482 -2.0655086 1.0423597 0
0.23902127 -2.0827882 1.0346022 0
0.23959067 -2.1129403 1.0200155 0
0.23949143 -2.1413567 1.0064247 0
0.23849413 -2.1668251 0.99446642 0
0.23847714 -2.1982126 0.97943175 0
0.23573452 -2.2175784 0.97082561 0
0.23616785 -2.2540207 0.95325857 0
0.23591885 -2.2887368 0.9366858 0
0.23434952 -2.3181586 0.92297387 0
0.23288706 -2.349709 0.90821564 0
0.36843419 -3.1599634 0.48674321 0
0.20619935 -2.2793529 0.94847244 0
0.19863942 -2.275625 0.95211315 0
0.19347829 -2.2864382 0.9481982 0
0.18621501 -2.2843969 0.95095801 0
0.14753509 -2.0745988 1.0609682 0
0.14247257 -2.0800748 1.0595864 0
0.13563326 -2.0732887 1.0645156 0
0.13054442 -2.078743 1.0631506 0
0.12475037 -2.0791588 1.0643725 0
0.11883435 -2.0785525 1.0661144 0
0.11245853 -2.0740294 1.0698457 0
0.10755252 -2.0816054 1.0674191 0
0.10106539 -2.0756321 1.0718726 0
0.09468966 -2.0700555 1.0761085 0
0.090173833 -2.0820336 1.0714772 0
0.083379529 -2.0717137 1.0780884 0
0.078952931 -2.0857875 1.0724311 0
0.072260521 -2.0754766 1.0790131 0
0.066379093 -2.0736334 1.0813389 0
0.060487293 -2.071312 1.0838965 0
0.055232339 -2.0772631 1.0823343 0
0.051908903 -2.1121631 1.0664277 0
0.048254661 -2.1470072 1.0506291 0
0.044083469 -2.178607 1.0365117 0
0.040036045 -2.2179568 1.0186508 0
0.035577379 -2.256438 1.0013067 0
0.030912898 -2.2983885 0.98235101 0
0.025972091 -2.343256 0.9620654 0
0.020062618 -2.3724017 0.94955021 0
0.013209514 -2.3791623 0.94799209 0
0.0061541125 -2.3801622 0.94924384 0
-0.00083247572 -2.3845823 0.9488399 0
-0.0079511777 -2.3828382 0.95142174 0
-0.014940865 -2.3905566 0.94943827 0
-0.021993287 -2.3987973 0.94721979 0
-0.029143997 -2.3907287 0.95283985 0
-0.036290117 -2.4081597 0.94624108 0
-0.043489285 -2.4120402 0.9461478 0
-0.050655521 -2.4108703 0.9484663 0
-0.057856239 -2.4126668 0.94937193 0
-0.065180995 -2.4195879 0.94785261 0
-0.072438277 -2.4217336 0.94860482 0
-0.079733796 -2.4246111 0.94901568 0
-0.086935259 -2.4242594 0.9509508 0
-0.094820119 -2.4408519 0.94493496 0
-0.10192532 -2.4369671 0.94853926 0
-0.10904516 -2.4341745 0.9516238 0
-0.11709524 -2.4488797 0.94655275 0
-0.12472881 -2.4543314 0.94581336 0
-0.13161981 -2.4474807 0.95078611 0
-0.13974553 -2.4595075 0.94701701 0
-0.14733949 -2.4628174 0.94729388 0
-0.15497199 -2.4662516 0.94752079 0
-0.16256249 -2.4688156 0.94815427 0
-0.16890776 -2.4569244 0.95540828 0
-0.17771804 -2.4729373 0.94989711 0
-0.18618518 -2.4838848 0.94672889 0
-0.19332242 -2.4807577 0.94997805 0
-0.20095015 -2.4825222 0.95100373 0
-0.2090956 -2.4887996 0.94999415 0
-0.21728516 -2.4949505 0.94905603 0
-0.22531322 -2.4992807 0.94895059 0
-0.23237693 -2.4955759 0.95245844 0
-0.2415677 -2.5085158 0.94851303 0
-0.24924791 -2.5093145 0.95001441 0
-0.25716239 -2.5117342 0.95079643 0
-0.2668722 -2.5264609 0.94612235 0
-0.27387354 -2.5220139 0.94997054 0
-0.28217679 -2.5263195 0.9499445 0
-0.29101074 -2.5337124 0.9485693 0
-0.30029759 -2.5434461 0.94618362 0
-0.30775946 -2.541707 0.94884729 0
-0.31629789 -2.5463004 0.94874102 0
-0.32454622 -2.5489855 0.94947785 0
-0.33265355 -2.5507333 0.95062917 0
-0.34245631 -2.5614762 0.94788659 0
-0.35053402 -2.5626245 0.94931793 0
-0.35916275 -2.56651 0.94957298 0
-0.36892873 -2.575865 0.94748634 0
-0.37509516 -2.5671983 0.95315158 0
-0.38573551 -2.5802305 0.94951743 0
-0.39445412 -2.5836952 0.94999611 0
-0.89597023 -4.8359804 -0.0061278343 0
-0.91461885 -4.8359303 -0.001529336 0
-0.93390977 -4.838613 0.0019176006 0
-0.95719898 -4.8582501 -0.001778245 0
-0.9790777 -4.871098 -0.0025670528 0
-0.99939167 -4.8769188 -0.00037300587 0
-1.0195845 -4.8819456 0.0021719933 0
-1.045131 -4.9079156 -0.0040043592 0
-1.0675778 -4.9207826 -0.0046627522 0
-1.0878578 -4.9248157 -0.0016204119 0
-1.1090953 -4.9322109 4.6133995e-05 0
-1.1344864 -4.9545527 -0.004430294 0
-1.1551051 -4.958756 -0.0013861656 0
-1.1786824 -4.9732466 -0.002545476 0
-1.20026 -4.9801598 -0.0005646944 0
-1.2259687 -5.0009632 -0.0042257309 0
-1.2480534 -5.0087242 -0.0025268793 0
-1.2704033 -5.0170197 -0.0010188818 0
-1.2958491 -5.035099 -0.003439188 0
-1.3184092 -5.0432005 -0.001786828 0
-1.3426358 -5.0562453 -0.0020941496 0
-1.368601 -5.0742269 -0.0043401718 0
-1.3944942 -5.091342 -0.0061889887 0
-1.4185021 -5.102118 -0.0054627657 0
-1.4401994 -5.1055589 -0.0017888546 0
-1.4639224 -5.1147623 -0.00037908554 0
-1.4923737 -5.1373367 -0.0042159557 0
-1.5137523 -5.1388931 0.00028264523 0
-1.539538 -5.1527462 -2.9444695e-05 0
-1.5676252 -5.1725192 -0.0026134253 0
-1.5914304 -5.1798649 -0.00029349327 0
-1.6182646 -5.1951122 -0.00101614 0
-1.6477094 -5.2168217 -0.0041949749 0
-0.76840574 -2.8374503 0.92014629 0
-0.77297783 -2.82411 0.92765963 0
-0.78290975 -2.8248515 0.92974079 0
-0.78506732 -2.805764 0.93941551 0
-0.79668927 -2.8108473 0.9398309 0
-0.80389994 -2.8048172 0.94448894 0
-0.81330121 -2.8042405 0.94707137 0
-0.82085794 -2.7991629 0.95135808 0
-0.83698553 -2.8146191 0.9479087 0
-0.84689349 -2.8149719 0.9501701 0
-0.85905498 -2.820513 0.95049852 0
-0.85895866 -2.7976213 0.96144319 0
-0.85809469 -2.7734547 0.97281021 0
-0.86095387 -2.7581685 0.98083568 0
-0.86225116 -2.7396979 0.99000388 0
-0.85880446 -2.7111506 1.0028365 0
-0.86073971 -2.6948946 1.0111001 0
-0.8578403 -2.6685443 1.0230141 0
-0.85582054 -2.6445901 1.033996 0
-0.86023331 -2.6346383 1.0398468 0
-0.85717273 -2.6092939 1.0512393 0
-0.85789835 -2.5922348 1.0595911 0
-0.85670865 -2.5715842 1.0691936 0
-0.85105431 -2.5423214 1.0818274 0
-0.85212457 -2.5270264 1.0894182 0
-0.85475099 -2.5150671 1.0957927 0
-0.86328077 -2.5148261 1.0980005 0
-0.87171865 -2.5143576 1.1002948 0
-0.88530815 -2.523694 1.0991551 0
-0.89566934 -2.5266752 1.1002684 0
-0.9096173 -2.5362597 1.0990977 0
-0.92159188 -2.5419347 1.099316 0
-0.93266577 -2.5457852 1.1001875 0
-0.94535631 -2.5524404 1.100112 0
-0.95752537 -2.5579674 1.1004488 0
-0.97195804 -2.5673621 1.099488 0
-0.9875921 -2.5786345 1.0979221 0
-1.0011631 -2.5860226 1.0977113 0
-1.0112326 -2.5871458 1.0996432 0
-1.0291221 -2.601594 1.0971091 0
-1.0437429 -2.6101539 1.0965943 0
-1.0536748 -2.6106014 1.0988163 0
-1.0660403 -2.615032 1.0997268 0
-1.0807935 -2.6232572 1.0994048 0
-1.0906551 -2.6232648 1.1018205 0
-1.1075832 -2.6346567 1.1005147 0
-1.1267259 -2.6493285 1.0981809 0
-1.1398913 -2.6541562 1.0990973 0
-1.1564022 -2.6641016 1.0983822 0
-1.1696497 -2.6687016 1.0994279 0
-1.1835135 -2.6741033 1.1002407 0
-1.2011422 -2.6851127 1.0992901 0
-1.2189941 -2.6961939 1.0983599 0
-1.2317785 -2.6993723 1.0999732 0
-1.2524747 -2.714236 1.0979283 0
-1.264873 -2.7164838 1.0998929 0
-1.2812706 -2.7244852 1.1000814 0
-1.2981946 -2.7330372 1.1001356 0
-1.3224032 -2.7518656 1.0970527 0
-1.3413458 -2.7627661 1.0964767 0
-1.3523031 -2.7620893 1.099489 0
-1.3713067 -2.7726452 1.099093 0
-1.3910141 -2.7839215 1.0985243 0
-1.4076648 -2.7907057 1.0993583 0
-1.4254067 -2.7987871 1.0998385 0
-4.1696696 -6.5064101 -0.003426671 0
-4.23241 -6.5432625 -0.0056929588 0
-4.2876763 -6.5692773 -0.0046005249 0
-4.339994 -6.5907068 -0.0020341873 0
-4.4029484 -6.6254797 -0.003251791 0
-4.460372 -6.6522245 -0.0019799471 0
-4.5256219 -6.6883621 -0.003288269 0
-4.6007733 -6.7363062 -0.0078247786 0
-4.6541162 -6.7555265 -0.0039485693 0
-4.7255106 -6.796875 -0.006246686 0
-4.7844663 -6.8217511 -0.003703475 0
-4.8496757 -6.8536844 -0.003007412 0
-4.9179597 -6.8885927 -0.0029824972 0
-4.9921184 -6.929801 -0.004535079 0
-5.0668111 -6.9706984 -0.005808115 0
-5.1315002 -6.9986639 -0.0033382177 0
-5.2038565 -7.0349903 -0.0029941797 0
-5.2790871 -7.0738201 -0.0031443834 0
-5.3572097 -7.1151018 -0.003759861 0
-5.4347701 -7.1547642 -0.0037374496 0
-5.5195022 -7.2017279 -0.0054537058 0
-5.5936918 -7.2356005 -0.0034837723 0
-5.6825609 -7.2852221 -0.0054591894 0
-5.7592349 -7.3200417 -0.003333807 0
-5.8528171 -7.3728051 -0.0056582689 0
-5.9357867 -7.4126749 -0.0044082403 0
-6.0231657 -7.4564071 -0.0039269924 0
-6.1113257 -7.4999514 -0.0031642914 0
-6.2082114 -7.5518689 -0.0042731762 0
-6.3042221 -7.6016788 -0.0045868158 0
-6.4032435 -7.6535397 -0.0051441193 0
-6.4961433 -7.6977735 -0.0035492182 0
-6.6017361 -7.7542009 -0.0046830177 0
-6.7111006 -7.8132744 -0.0061590672 0
-6.811058 -7.8613667 -0.0046817064 0
-6.9129577 -7.9102988 -0.0031298399 0
-7.0304632 -7.9738622 -0.0047601461 0
-7.1450582 -8.0331059 -0.0050352812 0
-7.2613077 -8.0926657 -0.0050555468 0
-7.382442 -8.1557064 -0.0055454969 0
-7.4971576 -8.2110491 -0.0039213896 0
-7.6279883 -8.2807751 -0.0052357912 0
-7.7531762 -8.3435297 -0.0045944452 0
-7.8858433 -8.4120235 -0.0048681498 0
-8.0216436 -8.4819746 -0.0050712824 0
-8.1572161 -8.5501623 -0.0044852495 0
-8.3018188 -8.6252613 -0.0049952269 0
-8.443162 -8.6956892 -0.0040677786 0
-8.5995255 -8.7783623 -0.0053222179 0
-8.7542553 -8.8577585 -0.0054074526 0
-8.9147205 -8.9406118 -0.0057413578 0
-9.0751743 -9.0216475 -0.0052081347 0
-9.2410355 -9.1057177 -0.0048024654 0
-9.423111 -9.2022924 -0.0064103603 0
-9.598588 -9.2910204 -0.0058767796 0
-9.772543 -9.3764801 -0.0041512251 0
-9.9684057 -9.4789696 -0.0052109957 0
0.34795126 -1.9549581 1.0939605 0
0.34295473 -1.957422 1.0940182 0
0.33754936 -1.9587187 1.0947082 0
0.33170107 -1.9586914 1.0961106 0
0.32855079 -1.9666605 1.093205 0
0.31985644 -1.957993 1.099246 0
0.31347978 -1.9561279 1.1016169 0
0.31024888 -1.9640135 1.0987686 0
0.30305186 -1.9594394 1.1025767 0
0.29602677 -1.9552008 1.10619 0
0.29139385 -1.9586594 1.105705 0
0.28425187 -1.953733 1.1096616 0
0.28001145 -1.9585077 1.1084799 0
0.27389055 -1.9568313 1.1107032 0
0.26713938 -1.9527873 1.1141623 0
0.26731032 -1.9736072 1.1045742 0
0.26342145 -1.9801732 1.1024874 0
0.25771728 -1.9800954 1.1038789 0
0.25059703 -1.9745089 1.1081328 0
0.24640095 -1.9800904 1.1065707 0
0.24340162 -1.9906247 1.1024528 0
0.24200681 -2.008091 1.0947747 0
0.24125963 -2.0289416 1.0853906 0
0.24185953 -2.0563796 1.0726657 0
0.23964283 -2.0726933 1.0657114 0
0.24110451 -2.106076 1.0500555 0
0.24043992 -2.1312346 1.0386763 0
0.23994109 -2.1582837 1.0263908 0
0.24053052 -2.1917686 1.0108954 0
0.24026871 -2.2226584 0.99679238 0
0.23694643 -2.2396493 0.98979038 0
0.235971 -2.2695327 0.97631836 0
0.23484966 -2.3001418 0.96254826 0
0.23334065 -2.3302174 0.94911498 0
0.2346971 -2.3778872 0.92693233 0
0.2345036 -2.4192796 0.90799689 0
0.36914244 -3.2606277 0.49017596 0
0.2071407 -2.3448663 0.94862425 0
0.15608643 -2.0692034 1.0871704 0
0.15145725 -2.0768507 1.0847638 0
0.14537239 -2.0751696 1.0869808 0
0.13849442 -2.0677972 1.0919963 0
0.13428295 -2.0789394 1.0878875 0
0.12823786 -2.0771842 1.0901294 0
0.12219571 -2.0752306 1.0924611 0
0.11598116 -2.0716553 1.0955777 0
0.11110874 -2.0788867 1.0934196 0
0.10539722 -2.0793486 1.0945652 0
0.099381179 -2.0769954 1.097074 0
0.09329471 -2.0736632 1.1000488 0
0.087711632 -2.0749168 1.1008008 0
0.081265777 -2.0671899 1.1058761 0
0.077094406 -2.0835471 1.0993664 0
0.070553064 -2.0741177 1.1052454 0
0.06483537 -2.0735888 1.1068467 0
0.060320977 -2.0885966 1.1010374 0
0.056843612 -2.1199329 1.0874938 0
0.052953783 -2.1494598 1.074878 0
0.049110327 -2.1841254 1.0598946 0
0.044926617 -2.2184763 1.0451365 0
0.04114968 -2.2665882 1.0239711 0
0.036150251 -2.298583 1.0104873 0
0.03182805 -2.3530746 0.98652607 0
0.026672516 -2.399137 0.96662837 0
0.020997528 -2.4424872 0.94809771 0
0.013583396 -2.439765 0.95110822 0
0.0063664652 -2.4437704 0.95098656 0
-0.00095879659 -2.4437847 0.95272112 0
-0.0080599152 -2.4583917 0.94771039 0
-0.015481051 -2.4543357 0.951334 0
-0.022806402 -2.4596257 0.9506492 0
-0.030179139 -2.4588032 0.95277864 0
-0.037607428 -2.475492 0.94689101 0
-0.044954207 -2.4653358 0.95329446 0
-0.052485432 -2.4765935 0.94992197 0
-0.059991594 -2.4809065 0.94972807 0
-0.067549348 -2.4859421 0.94921505 0
-0.075098366 -2.4891152 0.94955403 0
-0.082778722 -2.4956036 0.94840401 0
-0.090047419 -2.4893546 0.95299721 0
-0.098129719 -2.5042632 0.94808143 0
-0.10556349 -2.502152 0.95081633 0
-0.1133669 -2.5077877 0.95008653 0
-0.12144819 -2.5175462 0.94753206 0
-0.12894681 -2.5161409 0.94995874 0
-0.13698608 -2.5233305 0.94857246 0
-0.14456674 -2.5229812 0.9505344 0
-0.15256828 -2.5283866 0.94995725 0
-0.16088533 -2.5371852 0.9478991 0
-0.16907218 -2.5434558 0.94696927 0
-0.17729548 -2.54949 0.9461565 0
-0.18545225 -2.554215 0.94592845 0
-0.19289848 -2.5511889 0.94908571 0
-0.20163891 -2.5611355 0.94660187 0
-0.20909432 -2.5581646 0.94973612 0
-0.21756342 -2.5645492 0.94882119 0
-0.22593656 -2.5695882 0.94850045 0
-0.23370793 -2.5692415 0.95050645 0
-0.24108583 -2.5657711 0.95385134 0
-0.25087366 -2.5810854 0.94915479 0
-0.2600964 -2.5911322 0.94673949 0
-0.26768366 -2.5887418 0.94963896 0
-0.27608028 -2.5921168 0.95008677 0
-0.2862241 -2.6070223 0.94566238 0
-0.29429075 -2.6074452 0.94738555 0
-0.30285218 -2.6109562 0.94781035 0
-0.31126681 -2.6133401 0.948717 0
-0.3197749 -2.6161265 0.9494614 0
-0.32752386 -2.6143196 0.95213163 0
-0.33760145 -2.625772 0.9492749 0
-0.34599081 -2.6272902 0.95057255 0
-0.35544345 -2.6344237 0.94954795 0
-0.3644208 -2.6386845 0.94972765 0
-0.37400606 -2.6458232 0.94873214 0
-0.3825272 -2.6472754 0.95009136 0
-0.39291039 -2.6577258 0.9477669 0
-0.88868523 -4.9856977 -0.0019547939 0
-0.90962577 -4.9935622 -0.00058436394 0
-0.92951453 -4.9962063 0.0029300451 0
-0.95458543 -5.0218358 -0.00286448 0
-0.97520626 -5.0268292 -0.00025343895 0
-0.99577796 -5.0313191 0.0025767088 0
-1.0204508 -5.0527997 -0.0014096498 0
-1.0408475 -5.0557137 0.0021016598 0
-1.0646237 -5.0720987 0.00023853779 0
-1.0883019 -5.0873842 -0.0011433363 0
-1.1112864 -5.0993052 -0.0011473894 0
-1.1327543 -5.104898 0.0013900995 0
-1.1559054 -5.1165142 0.0015654564 0
-1.1803502 -5.132401 9.0003014e-05 0
-1.2042519 -5.1456633 -0.00031125546 0
-1.2313201 -5.1696625 -0.0048834085 0
-1.2538896 -5.1769829 -0.0028764009 0
-1.2778751 -5.1888366 -0.0026117563 0
-1.3003764 -5.1951652 -0.00016605854 0
-1.3253245 -5.2093463 -0.00073969364 0
-1.3471963 -5.2128649 0.0028448105 0
-1.37348 -5.2304273 0.0010379553 0
-1.4003547 -5.2492189 -0.0011922121 0
-1.4254861 -5.2618594 -0.0010159016 0
-1.4501765 -5.2726436 -9.3102455e-05 0
-1.4757102 -5.2855597 5.2452087e-05 0
-1.5044295 -5.3075299 -0.0031970739 0
-1.5281558 -5.3139939 -0.0005222559 0
-1.5514575 -5.3189173 0.0027580261 0
-1.5798576 -5.3382196 0.00065624714 0
-1.6092145 -5.3595719 -0.002158165 0
-1.6359717 -5.3729515 -0.0019345284 0
-0.73959148 -2.8426213 0.94537294 0
-0.74330038 -2.8265193 0.95363843 0
-0.74743986 -2.8119431 0.96130657 0
-0.75979197 -2.8194306 0.96080863 0
-0.76252156 -2.8015294 0.96966636 0
-0.77361649 -2.8056049 0.97043443 0
-0.68037438 -2.5438733 1.0682974 0
-0.68878865 -2.5442355 1.0701313 0
-0.80337673 -2.8081353 0.97634703 0
-0.81751657 -2.8191705 0.9746471 0
-0.82998008 -2.8258169 0.97456139 0
-0.84487712 -2.8380666 0.97248459 0
-0.861229 -2.8534024 0.96933818 0
-0.85974902 -2.8266566 0.98125142 0
-0.86204493 -2.8091958 0.98980427 0
-0.8603214 -2.7829099 1.0014486 0
-0.85839856 -2.7567205 1.0130014 0
-0.85620099 -2.7304585 1.0245222 0
-0.86048472 -2.7190189 1.0307863 0
-0.85777372 -2.6925337 1.0422873 0
-0.85902458 -2.6751182 1.050571 0
-0.85691452 -2.6508665 1.0611908 0
-0.85561889 -2.6288059 1.0709993 0
-0.85797268 -2.6147764 1.0779923 0
-0.85342014 -2.5867496 1.0897628 0
-0.85638672 -2.5746064 1.0960363 0
-0.85874051 -2.5614276 1.1026392 0
-0.87530279 -2.5768456 1.0995052 0
-0.88825291 -2.5847454 1.0989604 0
-0.90250784 -2.5949733 1.097658 0
-0.91066277 -2.5931261 1.1004434 0
-0.92217922 -2.5976961 1.1010847 0
-0.93881226 -2.6118138 1.0985638 0
-0.95280445 -2.6206288 1.0978469 0
-0.95871842 -2.6141987 1.1022012 0
-0.97569537 -2.6281815 1.099824 0
-0.9884305 -2.6341004 1.1001362 0
-1.0055337 -2.6477151 1.0979578 0
-1.0179907 -2.652705 1.0986302 0
-1.0300215 -2.6567802 1.0996208 0
-1.0469884 -2.6693518 1.0978881 0
-1.0579485 -2.6712022 1.0996444 0
-1.072037 -2.6783228 1.0997276 0
-1.085109 -2.6835122 1.1004546 0
-1.0985589 -2.6891723 1.1010556 0
-1.1145529 -2.6989024 1.1003948 0
-1.1345289 -2.7149642 1.0977769 0
-1.1477854 -2.7196534 1.0987772 0
-1.1626811 -2.7268443 1.0990198 0
-1.1741503 -2.7283239 1.1010672 0
-1.196895 -2.7476616 1.097605 0
-1.2050686 -2.7435801 1.1014193 0
-1.227953 -2.7625022 1.098181 0
-1.2406564 -2.7652323 1.0999482 0
-1.2604631 -2.7787452 1.0984589 0
-1.2711934 -2.7781284 1.101292 0
-1.2915149 -2.7919111 1.0998013 0
-1.3084173 -2.8002608 1.0999894 0
-1.3255547 -2.8087325 1.1001775 0
-1.3463423 -2.8223357 1.0988801 0
-1.3620363 -2.8282068 1.0999177 0
-1.3816125 -2.8394949 1.0993937 0
-1.4016485 -2.8511624 1.0988052 0
-1.4202641 -2.8605309 1.0989333 0
-1.4330828 -2.8615067 1.1015325 0
-4.2034068 -6.7045135 -0.0023618937 0
-4.2592959 -6.7317739 -0.0015798807 0
-4.3156033 -6.7588873 -0.00063121319 0
-4.3734107 -6.7873197 6.9499016e-05 0
-4.4361358 -6.8216314 -0.0007570982 0
-4.4956112 -6.8507605 2.014637e-05 0
-4.5599465 -6.8855667 -0.0006506443 0
-4.6224232 -6.9170785 -0.00025260448 0
-4.6851501 -6.9481153 0.00042283535 0
-4.7547379 -6.9872122 -0.00096738338 0
-4.8195863 -7.0193138 -0.00027596951 0
-4.8871202 -7.0540066 -0.00013506413 0
-4.9629617 -7.0982952 -0.0024194717 0
-5.0231409 -7.1220121 0.0010071993 0
-5.1011729 -7.1671438 -0.0011433363 0
-5.1734819 -7.2042093 -0.00095546246 0
-5.2450752 -7.2394958 -0.00012147427 0
-5.3221927 -7.28057 -0.000628829 0
-5.3926716 -7.3127122 0.0013819933 0
-5.4771752 -7.3606787 -0.00053060055 0
-5.5550008 -7.3996773 8.2135201e-05 0
-5.6340971 -7.439208 0.00075292587 0
-5.7253222 -7.4918327 -0.0016980171 0
-5.8072624 -7.5325985 -0.00091803074 0
-5.8880053 -7.5710068 0.00065910816 0
-5.9815316 -7.6229172 -0.00091767311 0
-6.0711684 -7.6692829 -0.0008764267 0
-6.1583958 -7.7118721 0.00032448769 0
-6.256515 -7.7654514 -0.00092589855 0
-6.3450251 -7.8072848 0.00092601776 0
-6.4452167 -7.8607779 0.00020754337 0
-6.5482912 -7.9161553 -0.00068962574 0
-6.6506209 -7.9694757 -0.00082075596 0
-6.752604 -8.0211973 -0.00030076504 0
-6.8612685 -8.0787382 -0.00086152554 0
-6.9727645 -8.1379242 -0.0015041828 0
-7.0773954 -8.1886625 9.6082687e-05 0
-7.1927099 -8.2491636 -0.00024211407 0
-7.3067894 -8.3070345 0.00033271313 0
-7.4266706 -8.3694324 0.00021028519 0
-7.5506182 -8.4344969 -0.00016844273 0
-7.6760077 -8.4995327 -0.00019133091 0
-7.8017397 -8.5634384 0.00038576126 0
-7.9393969 -8.6375637 -0.00088989735 0
-8.070755 -8.7039423 -0.00010991096 0
-8.2125912 -8.7789078 -0.00077712536 0
-8.3554001 -8.8531475 -0.00088095665 0
-8.4913464 -8.91922 0.001129508 0
-8.6563063 -9.0110741 -0.001786828 0
-8.8021011 -9.0830812 -0.00015676022 0
-8.96982 -9.1737547 -0.0018765926 0
-9.1238194 -9.2498703 -0.00018036366 0
-9.2951555 -9.340066 -0.00082099438 0
-9.471899 -9.4331913 -0.0015197992 0
-9.6446657 -9.5207281 -0.00060117245 0
-9.8316126 -9.6189489 -0.0012122393 0
0.34951812 -1.9561591 1.1125143 0
0.34730417 -1.9664274 1.108482 0
0.34086087 -1.9647665 1.1107055 0
0.33132172 -1.9539248 1.1177065 0
0.32635936 -1.9562886 1.1178069 0
0.32109693 -1.9577607 1.1183711 0
0.31298232 -1.9504513 1.1234801 0
0.31011936 -1.9592487 1.1202486 0
0.3031784 -1.9553207 1.1235901 0
0.29634821 -1.9515533 1.1268351 0
0.29167691 -1.9546943 1.1265242 0
0.28540748 -1.9525337 1.1289285 0
0.28029248 -1.9541677 1.1293871 0
0.27604339 -1.9588039 1.1283171 0
0.26981056 -1.9565376 1.1307598 0
0.26702136 -1.9665245 1.126985 0
0.26411393 -1.9763956 1.1232885 0
0.25799426 -1.974569 1.1255105 0
0.2540608 -1.9809462 1.1235973 0
0.2477527 -1.9782742 1.1262369 0
0.24299499 -1.9815847 1.1258709 0
0.24350137 -2.0063066 1.1148145 0
0.24186453 -2.023138 1.1077447 0
0.24218324 -2.0488982 1.0962722 0
0.24094269 -2.068984 1.0876708 0
0.24032676 -2.0926609 1.0773361 0
0.2397638 -2.1175873 1.0664361 0
0.23760295 -2.1362133 1.0586932 0
0.23711237 -2.1635616 1.046705 0
0.23832089 -2.2004068 1.0301218 0
0.23720539 -2.2274535 1.0184112 0
0.23641467 -2.2574518 1.0053196 0
0.23612177 -2.2915344 0.99030554 0
0.23505598 -2.3231997 0.97653979 0
0.23439756 -2.358758 0.96095741 0
0.23540974 -2.4056964 0.93995321 0
0.23317572 -2.4362993 0.92692739 0
0.23143479 -2.4715786 0.91171861 0
0.15993834 -2.0769763 1.1028466 0
0.1553901 -2.0850744 1.1003139 0
0.14819217 -2.0761483 1.1059265 0
0.14313172 -2.0811057 1.1049018 0
0.13690406 -2.0780985 1.107671 0
0.13050896 -2.0735741 1.1111505 0
0.12528941 -2.0775237 1.1106086 0
0.11946349 -2.0769277 1.1122181 0
0.11454183 -2.0835783 1.1104121 0
0.10838902 -2.0802259 1.1133168 0
0.10244513 -2.0783482 1.115521 0
0.096287996 -2.0742381 1.118762 0
0.090518296 -2.0734043 1.1204638 0
0.085649103 -2.0815406 1.1179882 0
0.07934916 -2.0751381 1.1222767 0
0.073630124 -2.0744791 1.1238892 0
0.06834662 -2.0788217 1.1231883 0
0.063081533 -2.0838115 1.1221966 0
0.060585354 -2.1264546 1.1039035 0
0.056077722 -2.145983 1.0963035 0
0.053032015 -2.1907015 1.077219 0
0.048754934 -2.2219071 1.0643985 0
0.045645479 -2.279285 1.0397271 0
0.040555064 -2.3082376 1.0280914 0
0.03570265 -2.3480928 1.0115764 0
0.031403664 -2.4102025 0.98508584 0
0.025443587 -2.4427962 0.97204006 0
0.019733224 -2.4925303 0.95135164 0
0.012467835 -2.5021691 0.9487648 0
0.0050347187 -2.50805 0.94787967 0
-0.0026099347 -2.5047958 0.95108557 0
-0.010101851 -2.510231 0.95041114 0
-0.017598059 -2.52035 0.94766515 0
-0.025227066 -2.5187836 0.95012069 0
-0.032850321 -2.5354099 0.94452441 0
-0.040479835 -2.5259755 0.95046169 0
-0.04817408 -2.5321794 0.94949383 0
-0.055924889 -2.5386529 0.94841987 0
-0.063703477 -2.5437188 0.9479751 0
-0.071519554 -2.5485897 0.94762528 0
-0.079347372 -2.5524509 0.94772494 0
-0.086712182 -2.5415263 0.95426035 0
-0.094950259 -2.5562935 0.94962901 0
-0.10307491 -2.56528 0.94752932 0
-0.11098069 -2.5679626 0.94816834 0
-0.11896837 -2.5718021 0.94831455 0
-0.12657446 -2.5683317 0.95160747 0
-0.13491946 -2.5774755 0.94948894 0
-0.1430099 -2.581511 0.94957227 0
-0.15094322 -2.582818 0.95082647 0
-0.15926462 -2.5891449 0.94994909 0
-0.16752297 -2.5939646 0.94972414 0
-0.17562062 -2.5963643 0.95053291 0
-0.18395835 -2.6012228 0.95030904 0
-0.19305015 -2.6136408 0.94691426 0
-0.20066756 -2.6099141 0.9503231 0
-0.20905012 -2.6139455 0.95047551 0
-0.21692669 -2.6129284 0.95274508 0
-0.2263211 -2.6255002 0.94935226 0
-0.23543096 -2.634634 0.94741505 0
-0.24242127 -2.6256325 0.953013 0
-0.25241888 -2.6410971 0.94847941 0
-0.26208103 -2.65289 0.94549304 0
-0.26920342 -2.6451168 0.95057797 0
-0.27836841 -2.6524138 0.94946629 0
-0.28692776 -2.6550403 0.95028132 0
-0.29661888 -2.6650546 0.94808865 0
-0.30477321 -2.6644692 0.95023131 0
-0.31380689 -2.6694329 0.9501217 0
-0.32444388 -2.6838989 0.94617766 0
-0.3331449 -2.686017 0.94725043 0
-0.34001809 -2.6774139 0.95264512 0
-0.35033387 -2.6886365 0.95006204 0
-0.36163032 -2.7046423 0.94558895 0
-0.36902708 -2.6989317 0.94982475 0
-0.37866223 -2.7051616 0.94929367 0
-0.38753116 -2.7071543 0.95046079 0
-0.3967154 -2.7105894 0.95106232 0
-0.89869064 -5.1126046 0.0041267872 0
-0.92454976 -5.1415205 -0.0026949644 0
-0.94681007 -5.152339 -0.0023399591 0
-0.96786827 -5.1571259 0.00040650368 0
-0.99173158 -5.1741381 -0.0016088486 0
-1.0129672 -5.1788745 0.001200676 0
-1.0367746 -5.1943369 -0.00014185905 0
-1.0586637 -5.2010436 0.0019471645 0
-1.0805072 -5.2072039 0.0042669773 0
-1.1064695 -5.2296543 0.00033020973 0
-1.1307003 -5.2443047 -0.00055503845 0
-1.1533979 -5.2523546 0.0011258125 0
-1.1791987 -5.2718506 -0.0015407801 0
-1.1999055 -5.2714543 0.0034178495 0
-1.224741 -5.2861676 0.0026443005 0
-1.2498106 -5.3011131 0.0018222332 0
-1.2762983 -5.320487 -0.00063192844 0
-1.3007181 -5.3318667 -2.6226044e-05 0
-1.3257619 -5.3449063 -1.1205673e-05 0
-1.3518324 -5.3608813 -0.001057744 0
-1.3751714 -5.3671312 0.0015681982 0
-1.400424 -5.3793406 0.0019990206 0
-1.4289788 -5.4017086 -0.0013025999 0
-1.4505273 -5.4010038 0.0039873123 0
-1.4724097 -5.4012432 0.008936286 0
-1.4948835 -5.4031744 0.01327312 0
-1.5343301 -5.4564829 -0.0012034178 0
-1.5607157 -5.4690175 -0.00065493584 0
-1.5870186 -5.4808187 0.00019907951 0
-1.6151463 -5.4974627 -0.00066816807 0
-1.6430669 -5.5129161 -0.0010564327 0
-0.72110212 -2.8415685 0.9680391 0
-0.72535974 -2.8267238 0.97559142 0
-0.73401701 -2.8243299 0.97865057 0
-0.73807728 -2.809464 0.98616678 0
-0.74579632 -2.8047357 0.99004209 0
-0.75533015 -2.8048716 0.9921844 0
-0.76632696 -2.8087642 0.99300218 0
-0.67532355 -2.5497665 1.0865867 0
-0.68387836 -2.5504727 1.0882504 0
-0.79906875 -2.8188887 0.99608558 0
-0.81337607 -2.8303943 0.99429959 0
-0.82873738 -2.8441381 0.99176633 0
-0.86193508 -2.9006414 0.97443253 0
-0.86846715 -2.8919797 0.97977418 0
-0.85694093 -2.8408151 0.99975204 0
-0.86285877 -2.8315082 1.0052373 0
-0.86374152 -2.8107455 1.0146289 0
-0.85955864 -2.7788572 1.0277731 0
-0.85779768 -2.7530999 1.038764 0
-0.85929018 -2.7351174 1.047066 0
-0.85891527 -2.7133694 1.056603 0
-0.85924023 -2.6935735 1.0654377 0
-0.85773331 -2.6702151 1.0754257 0
-0.86077231 -2.6569929 1.0819787 0
-0.85815841 -2.6320972 1.0923913 0
-0.86240667 -2.6219769 1.0978508 0
-0.87174374 -2.6225002 1.0997763 0
-0.88151497 -2.6238375 1.1014416 0
-0.89707309 -2.6367555 1.0993193 0
-0.90885508 -2.6418071 1.099806 0
-0.91531271 -2.6361799 1.1037877 0
-0.93654352 -2.6594687 1.0983866 0
-0.94686234 -2.661118 1.1000406 0
-0.96036035 -2.6687536 1.09978 0
-0.97486657 -2.6780791 1.0990043 0
-0.98813277 -2.6848278 1.0990827 0
-1.0029997 -2.6943455 1.0983055 0
-1.0185266 -2.7048206 1.097257 0
-1.0285079 -2.7049341 1.0995126 0
-1.0432781 -2.7136025 1.0990887 0
-1.0575314 -2.7211123 1.0990582 0
-1.070712 -2.7265134 1.0997131 0
-1.0866338 -2.7365341 1.0989568 0
-1.1002804 -2.7423525 1.0995347 0
-1.1173085 -2.7537885 1.098408 0
-1.1330293 -2.7627149 1.0980895 0
-1.1408855 -2.7581668 1.101917 0
-1.1593297 -2.7712803 1.1003748 0
-1.1806388 -2.7888052 1.0975425 0
-1.1874501 -2.7822151 1.1020322 0
-1.2088705 -2.7993469 1.0993996 0
-1.2261457 -2.809432 1.0989275 0
-1.2390133 -2.8122444 1.1006556 0
-1.2546602 -2.8193088 1.1011441 0
-1.2749846 -2.8334723 1.0995717 0
-1.2948703 -2.8466213 1.0983469 0
-1.3097602 -2.8517923 1.0994985 0
-1.3315334 -2.8672514 1.0976875 0
-1.3472511 -2.8732319 1.0986722 0
-1.3643115 -2.8810277 1.0991633 0
-1.3752356 -2.8795238 1.1023526 0
-1.3990616 -2.8968825 1.1001751 0
-1.4211528 -2.9113297 1.0988854 0
-1.4428803 -2.9249139 1.0978935 0
-4.203557 -6.849905 -0.0011875629 0
-4.2599273 -6.8778362 -0.00052523613 0
-4.3238535 -6.9156294 -0.0024814606 0
-4.3782096 -6.9391909 -0.00035095215 0
-4.4456596 -6.9801445 -0.0028916597 0
-4.5031676 -7.0065298 -0.0012825727 0
-4.5625849 -7.0347815 -5.8412552e-05 0
-4.6270089 -7.0690084 -0.00032114983 0
-4.6964293 -7.1090345 -0.0019965172 0
-4.7624292 -7.1435819 -0.0020372868 0
-4.8299446 -7.1792464 -0.0022226572 0
-4.8923182 -7.2073417 -0.00024592876 0
-4.971766 -7.2566724 -0.0037218332 0
-5.0287719 -7.2762089 0.00080168247 0
-5.1039143 -7.318099 -0.00037646294 0
-5.1827393 -7.363615 -0.0023082495 0
-5.2511425 -7.3950844 -0.00043177605 0
-5.3313055 -7.4402514 -0.0019003153 0
-5.4060473 -7.4777155 -0.0012124777 0
-5.4894252 -7.5247378 -0.0027589798 0
-5.5629206 -7.5587516 -0.00083231926 0
-5.6426802 -7.599369 -0.00038051605 0
-5.7262874 -7.643548 -0.00061619282 0
-5.8173666 -7.6954584 -0.0025467873 0
-5.8981957 -7.7342253 -0.001029253 0
-5.9833875 -7.7770619 -0.00030446053 0
-6.0782003 -7.8298912 -0.0017793179 0
-6.1646976 -7.8720446 -0.00045073032 0
-6.2625952 -7.9260235 -0.0017217398 0
-6.3575988 -7.9755244 -0.0016795397 0
-6.4537239 -8.0250998 -0.001411438 0
-6.5559626 -8.0802336 -0.0021904707 0
-6.6564112 -8.132144 -0.0019563437 0
-6.7604918 -8.1867685 -0.0020846128 0
-6.865169 -8.2407637 -0.001796484 0
-6.9771404 -8.3012733 -0.0027061701 0
-7.0914583 -8.3628912 -0.0035640001 0
-7.1996164 -8.4166441 -0.002364397 0
-7.3182878 -8.4800663 -0.0030151606 0
-7.4352126 -8.5402451 -0.0026340485 0
-7.561029 -8.6081438 -0.0036149025 0
-7.6748652 -8.6623363 -0.0012985468 0
-7.8173814 -8.7441463 -0.0045775175 0
-7.9463873 -8.8106813 -0.0042183399 0
-8.0698671 -8.8702097 -0.0020349026 0
-8.2055197 -8.9403057 -0.0017162561 0
-8.3509712 -9.0183811 -0.0026642084 0
-8.5063801 -9.1043787 -0.0048179626 0
-8.6411037 -9.1686258 -0.0021256208 0
-8.7900314 -9.244894 -0.0014712811 0
-8.9550037 -9.3346176 -0.003064394 0
-9.1090212 -9.4121132 -0.0017771721 0
-9.2786827 -9.502409 -0.0025407076 0
-9.4469233 -9.5894175 -0.0021772385 0
-9.6193237 -9.6783009 -0.0016832352 0
-9.8065624 -9.7786999 -0.002856493 0
-9.9932499 -9.8764305 -0.0029764175 0
0.34972483 -1.9533479 1.1333292 0
0.34526449 -1.9570776 1.1327415 0
0.33916509 -1.956154 1.1345071 0
0.33182025 -1.9515061 1.1381409 0
0.32846487 -1.9584755 1.1359233 0
0.32149613 -1.9547248 1.1390899 0
0.31622684 -1.9559929 1.139734 0
0.30772424 -1.9471784 1.1454054 0
0.30488658 -1.955935 1.142309 0
