# .PCD v0.7 - Point Cloud Data file format
VERSION 0.7
FIELDS x y z
SIZE 4 4 4
TYPE F F F
COUNT 1 1 1
WIDTH 197
HEIGHT 1
VIEWPOINT 0 0 0 1 0 0 0
POINTS 197
DATA ascii
-0.085000001 0.79500002 0.015
-0.094999999 0.79500002 0.025
-0.085000001 0.79500002 0.035
-0.085000001 0.79500002 0.045000002
-0.064999998 0.79500002 0.015
-0.045000002 0.78500003 0.015
-0.055 0.79500002 0.015
-0.045000002 0.79500002 0.015
-0.045000002 0.77499998 0.025
-0.045000002 0.77499998 0.035
-0.075000003 0.79500002 0.025
-0.064999998 0.79500002 0.025
-0.064999998 0.78500003 0.035
-0.075000003 0.79500002 0.035
-0.064999998 0.79500002 0.035
-0.055 0.78500003 0.025
-0.055 0.79500002 0.025
-0.045000002 0.79500002 0.025
-0.055 0.78500003 0.035
-0.045000002 0.78500003 0.035
-0.055 0.79500002 0.035
-0.045000002 0.79500002 0.035
-0.0049999999 0.76499999 0.0049999999
-0.015 0.77499998 0.0049999999
-0.0049999999 0.77499998 0.0049999999
-0.0049999999 0.77499998 0.015
-0.025 0.78500003 0.0049999999
-0.025 0.78500003 0.015
-0.035 0.79500002 0.015
-0.025 0.79500002 0.015
-0.015 0.78500003 0.0049999999
-0.015 0.79500002 0.0049999999
-0.015 0.78500003 0.015
-0.015 0.79500002 0.015
-0.035 0.77499998 0.035
-0.025 0.77499998 0.035
-0.0049999999 0.76499999 0.025
-0.015 0.77499998 0.025
-0.0049999999 0.77499998 0.025
-0.0049999999 0.77499998 0.035
-0.035 0.78500003 0.025
-0.025 0.78500003 0.025
-0.035 0.79500002 0.025
-0.025 0.79500002 0.025
-0.035 0.78500003 0.035
-0.025 0.78500003 0.035
-0.035 0.79500002 0.035
-0.025 0.79500002 0.035
-0.015 0.78500003 0.025
-0.0049999999 0.78500003 0.025
-0.015 0.79500002 0.025
-0.015 0.78500003 0.035
-0.0049999999 0.78500003 0.035
-0.015 0.79500002 0.035
-0.064999998 0.78500003 0.045000002
-0.064999998 0.79500002 0.045000002
-0.055 0.78500003 0.045000002
-0.025 0.79500002 0.045000002
-0.015 0.78500003 0.045000002
-0.0049999999 0.78500003 0.045000002
-0.015 0.79500002 0.045000002
-0.0049999999 0.79500002 0.045000002
-0.125 0.80500001 0.0049999999
-0.13500001 0.815 0.0049999999
-0.125 0.815 0.0049999999
-0.13500001 0.80500001 0.015
-0.125 0.80500001 0.015
-0.13500001 0.815 0.015
-0.125 0.815 0.015
-0.145 0.82499999 0.0049999999
-0.145 0.82499999 0.015
-0.125 0.82499999 0.015
-0.145 0.815 0.025
-0.13500001 0.815 0.025
-0.13500001 0.80500001 0.035
-0.13500001 0.815 0.035
-0.145 0.82499999 0.025
-0.145 0.83499998 0.025
-0.145 0.83499998 0.035
-0.13500001 0.82499999 0.025
-0.125 0.83499998 0.025
-0.13500001 0.82499999 0.035
-0.125 0.83499998 0.035
-0.115 0.80500001 0.0049999999
-0.105 0.80500001 0.0049999999
-0.115 0.815 0.0049999999
-0.105 0.815 0.0049999999
-0.115 0.80500001 0.015
-0.105 0.80500001 0.015
-0.115 0.815 0.015
-0.105 0.815 0.015
-0.094999999 0.80500001 0.0049999999
-0.085000001 0.80500001 0.0049999999
-0.094999999 0.815 0.0049999999
-0.085000001 0.815 0.0049999999
-0.094999999 0.80500001 0.015
-0.085000001 0.80500001 0.015
-0.094999999 0.815 0.015
-0.085000001 0.815 0.015
-0.105 0.82499999 0.0049999999
-0.105 0.82499999 0.015
-0.094999999 0.82499999 0.0049999999
-0.085000001 0.82499999 0.0049999999
-0.085000001 0.83499998 0.0049999999
-0.094999999 0.82499999 0.015
-0.085000001 0.82499999 0.015
-0.085000001 0.83499998 0.015
-0.115 0.80500001 0.025
-0.105 0.80500001 0.025
-0.105 0.815 0.025
-0.115 0.80500001 0.035
-0.105 0.80500001 0.035
-0.115 0.815 0.035
-0.105 0.815 0.035
-0.094999999 0.80500001 0.025
-0.085000001 0.80500001 0.025
-0.094999999 0.815 0.025
-0.085000001 0.815 0.025
-0.094999999 0.80500001 0.035
-0.085000001 0.80500001 0.035
-0.094999999 0.815 0.035
-0.085000001 0.815 0.035
-0.115 0.82499999 0.025
-0.105 0.82499999 0.025
-0.115 0.82499999 0.035
-0.085000001 0.82499999 0.025
-0.125 0.80500001 0.045000002
-0.13500001 0.815 0.045000002
-0.125 0.815 0.045000002
-0.13500001 0.82499999 0.045000002
-0.125 0.82499999 0.045000002
-0.115 0.815 0.045000002
-0.105 0.815 0.045000002
-0.094999999 0.80500001 0.045000002
-0.085000001 0.80500001 0.045000002
-0.094999999 0.815 0.045000002
-0.085000001 0.815 0.045000002
-0.115 0.82499999 0.045000002
-0.105 0.82499999 0.045000002
-0.094999999 0.82499999 0.045000002
-0.145 0.84500003 0.045000002
-0.075000003 0.80500001 0.0049999999
-0.064999998 0.80500001 0.0049999999
-0.075000003 0.815 0.0049999999
-0.064999998 0.815 0.0049999999
-0.075000003 0.80500001 0.015
-0.064999998 0.80500001 0.015
-0.075000003 0.815 0.015
-0.055 0.80500001 0.0049999999
-0.045000002 0.80500001 0.0049999999
-0.055 0.815 0.0049999999
-0.045000002 0.815 0.0049999999
-0.055 0.80500001 0.015
-0.045000002 0.80500001 0.015
-0.055 0.815 0.015
-0.045000002 0.815 0.015
-0.075000003 0.82499999 0.0049999999
-0.064999998 0.82499999 0.0049999999
-0.075000003 0.83499998 0.0049999999
-0.075000003 0.82499999 0.015
-0.064999998 0.82499999 0.015
-0.055 0.82499999 0.0049999999
-0.045000002 0.82499999 0.0049999999
-0.075000003 0.80500001 0.025
-0.064999998 0.80500001 0.025
-0.075000003 0.815 0.025
-0.075000003 0.80500001 0.035
-0.064999998 0.80500001 0.035
-0.075000003 0.815 0.035
-0.055 0.80500001 0.025
-0.045000002 0.80500001 0.025
-0.055 0.815 0.025
-0.055 0.80500001 0.035
-0.045000002 0.80500001 0.035
-0.035 0.80500001 0.0049999999
-0.025 0.80500001 0.0049999999
-0.035 0.815 0.0049999999
-0.035 0.80500001 0.015
-0.025 0.80500001 0.015
-0.035 0.815 0.015
-0.025 0.815 0.015
-0.015 0.80500001 0.0049999999
-0.015 0.80500001 0.015
-0.035 0.82499999 0.0049999999
-0.025 0.82499999 0.0049999999
-0.035 0.80500001 0.025
-0.025 0.80500001 0.025
-0.035 0.80500001 0.035
-0.075000003 0.80500001 0.045000002
-0.064999998 0.80500001 0.045000002
-0.075000003 0.815 0.045000002
-0.064999998 0.815 0.045000002
-0.055 0.80500001 0.045000002
-0.045000002 0.80500001 0.045000002
-0.035 0.80500001 0.045000002
-0.025 0.80500001 0.045000002
-0.015 0.80500001 0.045000002
