# .PCD v0.7 - Point Cloud Data file format
VERSION 0.7
FIELDS x y z
SIZE 4 4 4
TYPE F F F
COUNT 1 1 1
WIDTH 384
HEIGHT 1
VIEWPOINT 0 0 0 1 0 0 0
POINTS 384
DATA ascii
0.39500001 0.63499999 -0.495
0.39500001 0.63499999 -0.48500001
0.44499999 0.59500003 -0.48500001
0.435 0.60500002 -0.48500001
0.435 0.61500001 -0.48500001
0.41499999 0.625 -0.48500001
0.405 0.63499999 -0.48500001
0.41499999 0.63499999 -0.48500001
0.42500001 0.625 -0.48500001
0.435 0.625 -0.48500001
0.44499999 0.61500001 -0.48500001
0.45500001 0.61500001 -0.48500001
0.44499999 0.625 -0.48500001
0.45500001 0.625 -0.48500001
0.465 0.63499999 -0.48500001
0.48500001 0.59500003 -0.48500001
0.38499999 0.63499999 -0.47499999
0.39500001 0.63499999 -0.47499999
0.405 0.63499999 -0.465
0.41499999 0.63499999 -0.465
0.435 0.625 -0.465
0.42500001 0.63499999 -0.465
0.41499999 0.63499999 -0.45500001
0.42500001 0.625 -0.45500001
0.435 0.625 -0.45500001
0.42500001 0.63499999 -0.45500001
0.435 0.63499999 -0.45500001
0.435 0.625 -0.44499999
0.42500001 0.63499999 -0.44499999
0.435 0.63499999 -0.44499999
0.45500001 0.63499999 -0.465
0.465 0.63499999 -0.47499999
0.47499999 0.63499999 -0.47499999
0.465 0.63499999 -0.465
0.44499999 0.625 -0.45500001
0.44499999 0.625 -0.44499999
0.465 0.63499999 -0.45500001
0.255 0.71499997 -0.48500001
0.27500001 0.70499998 -0.48500001
0.26499999 0.71499997 -0.48500001
0.27500001 0.71499997 -0.48500001
0.30500001 0.69499999 -0.495
0.315 0.69499999 -0.48500001
0.285 0.70499998 -0.495
0.29499999 0.70499998 -0.48500001
0.285 0.71499997 -0.48500001
0.29499999 0.71499997 -0.48500001
0.30500001 0.70499998 -0.48500001
0.315 0.70499998 -0.48500001
0.245 0.72500002 -0.48500001
0.255 0.72500002 -0.48500001
0.245 0.73500001 -0.48500001
0.29499999 0.73500001 -0.48500001
0.30500001 0.73500001 -0.495
0.315 0.73500001 -0.495
0.315 0.72500002 -0.48500001
0.30500001 0.73500001 -0.48500001
0.315 0.73500001 -0.48500001
0.285 0.745 -0.48500001
0.29499999 0.745 -0.48500001
0.30500001 0.745 -0.495
0.285 0.76499999 -0.48500001
0.245 0.71499997 -0.47499999
0.255 0.71499997 -0.47499999
0.26499999 0.71499997 -0.47499999
0.27500001 0.71499997 -0.47499999
0.255 0.70499998 -0.45500001
0.255 0.70499998 -0.44499999
0.255 0.71499997 -0.44499999
0.27500001 0.71499997 -0.45500001
0.26499999 0.70499998 -0.44499999
0.27500001 0.70499998 -0.44499999
0.26499999 0.71499997 -0.44499999
0.27500001 0.71499997 -0.44499999
0.30500001 0.69499999 -0.47499999
0.315 0.69499999 -0.47499999
0.315 0.69499999 -0.465
0.29499999 0.70499998 -0.47499999
0.285 0.71499997 -0.47499999
0.29499999 0.71499997 -0.47499999
0.285 0.71499997 -0.465
0.29499999 0.71499997 -0.465
0.30500001 0.70499998 -0.47499999
0.315 0.70499998 -0.47499999
0.30500001 0.71499997 -0.47499999
0.315 0.71499997 -0.47499999
0.30500001 0.70499998 -0.465
0.315 0.70499998 -0.465
0.30500001 0.71499997 -0.465
0.315 0.71499997 -0.465
0.285 0.70499998 -0.45500001
0.29499999 0.70499998 -0.45500001
0.285 0.71499997 -0.45500001
0.29499999 0.71499997 -0.45500001
0.285 0.70499998 -0.44499999
0.285 0.71499997 -0.44499999
0.29499999 0.71499997 -0.44499999
0.30500001 0.70499998 -0.45500001
0.315 0.70499998 -0.45500001
0.30500001 0.71499997 -0.45500001
0.315 0.71499997 -0.45500001
0.30500001 0.71499997 -0.44499999
0.315 0.71499997 -0.44499999
0.26499999 0.70499998 -0.435
0.26499999 0.71499997 -0.435
0.27500001 0.71499997 -0.435
0.27500001 0.71499997 -0.42500001
0.285 0.70499998 -0.435
0.285 0.71499997 -0.435
0.29499999 0.71499997 -0.435
0.285 0.71499997 -0.42500001
0.255 0.72500002 -0.47499999
0.255 0.73500001 -0.47499999
0.26499999 0.72500002 -0.47499999
0.27500001 0.72500002 -0.47499999
0.26499999 0.73500001 -0.47499999
0.27500001 0.73500001 -0.47499999
0.26499999 0.72500002 -0.465
0.27500001 0.72500002 -0.465
0.245 0.745 -0.47499999
0.255 0.745 -0.47499999
0.27500001 0.755 -0.47499999
0.27500001 0.72500002 -0.45500001
0.285 0.72500002 -0.47499999
0.29499999 0.72500002 -0.47499999
0.285 0.73500001 -0.47499999
0.29499999 0.73500001 -0.47499999
0.285 0.72500002 -0.465
0.29499999 0.72500002 -0.465
0.29499999 0.73500001 -0.465
0.30500001 0.72500002 -0.47499999
0.315 0.72500002 -0.47499999
0.30500001 0.73500001 -0.47499999
0.315 0.73500001 -0.47499999
0.30500001 0.72500002 -0.465
0.315 0.72500002 -0.465
0.30500001 0.73500001 -0.465
0.315 0.73500001 -0.465
0.29499999 0.745 -0.47499999
0.30500001 0.745 -0.465
0.315 0.745 -0.465
0.285 0.72500002 -0.45500001
0.29499999 0.72500002 -0.45500001
0.29499999 0.73500001 -0.45500001
0.285 0.72500002 -0.44499999
0.29499999 0.72500002 -0.44499999
0.29499999 0.73500001 -0.44499999
0.30500001 0.72500002 -0.45500001
0.315 0.72500002 -0.45500001
0.30500001 0.73500001 -0.45500001
0.30500001 0.72500002 -0.44499999
0.29499999 0.755 -0.45500001
0.30500001 0.745 -0.45500001
0.315 0.745 -0.45500001
0.30500001 0.755 -0.45500001
0.315 0.755 -0.45500001
0.285 0.76499999 -0.465
0.285 0.76499999 -0.45500001
0.29499999 0.76499999 -0.45500001
0.285 0.77499998 -0.45500001
0.27500001 0.72500002 -0.42500001
0.29499999 0.72500002 -0.435
0.285 0.73500001 -0.435
0.29499999 0.73500001 -0.435
0.29499999 0.745 -0.435
0.29499999 0.745 -0.42500001
0.30500001 0.755 -0.435
0.285 0.745 -0.41499999
0.345 0.67500001 -0.48500001
0.35499999 0.67500001 -0.48500001
0.36500001 0.65499997 -0.48500001
0.375 0.65499997 -0.48500001
0.38499999 0.64499998 -0.48500001
0.39500001 0.64499998 -0.48500001
0.38499999 0.65499997 -0.48500001
0.36500001 0.66500002 -0.48500001
0.33500001 0.685 -0.48500001
0.32499999 0.69499999 -0.48500001
0.345 0.685 -0.48500001
0.35499999 0.685 -0.48500001
0.345 0.69499999 -0.48500001
0.35499999 0.69499999 -0.48500001
0.32499999 0.70499998 -0.48500001
0.32499999 0.71499997 -0.48500001
0.33500001 0.71499997 -0.48500001
0.35499999 0.70499998 -0.495
0.345 0.71499997 -0.495
0.35499999 0.71499997 -0.495
0.345 0.70499998 -0.48500001
0.35499999 0.70499998 -0.48500001
0.375 0.69499999 -0.495
0.375 0.685 -0.48500001
0.36500001 0.69499999 -0.48500001
0.375 0.69499999 -0.48500001
0.39500001 0.685 -0.495
0.38499999 0.69499999 -0.495
0.38499999 0.685 -0.48500001
0.39500001 0.685 -0.48500001
0.36500001 0.70499998 -0.495
0.405 0.64499998 -0.48500001
0.42500001 0.65499997 -0.48500001
0.435 0.65499997 -0.48500001
0.405 0.67500001 -0.495
0.41499999 0.67500001 -0.495
0.41499999 0.66500002 -0.48500001
0.405 0.67500001 -0.48500001
0.41499999 0.67500001 -0.48500001
0.435 0.66500002 -0.495
0.42500001 0.66500002 -0.48500001
0.435 0.66500002 -0.48500001
0.44499999 0.65499997 -0.495
0.45500001 0.65499997 -0.495
0.44499999 0.64499998 -0.48500001
0.45500001 0.64499998 -0.48500001
0.44499999 0.65499997 -0.48500001
0.405 0.685 -0.495
0.41499999 0.685 -0.495
0.32499999 0.72500002 -0.495
0.32499999 0.73500001 -0.495
0.32499999 0.72500002 -0.48500001
0.33500001 0.72500002 -0.48500001
0.33500001 0.67500001 -0.465
0.35499999 0.66500002 -0.47499999
0.345 0.67500001 -0.47499999
0.35499999 0.66500002 -0.465
0.345 0.67500001 -0.465
0.35499999 0.67500001 -0.465
0.345 0.67500001 -0.45500001
0.35499999 0.67500001 -0.45500001
0.375 0.65499997 -0.47499999
0.375 0.65499997 -0.465
0.39500001 0.64499998 -0.465
0.38499999 0.65499997 -0.465
0.39500001 0.65499997 -0.465
0.36500001 0.66500002 -0.465
0.375 0.66500002 -0.465
0.36500001 0.67500001 -0.465
0.375 0.67500001 -0.465
0.39500001 0.67500001 -0.47499999
0.375 0.65499997 -0.45500001
0.39500001 0.64499998 -0.45500001
0.38499999 0.65499997 -0.45500001
0.39500001 0.65499997 -0.45500001
0.38499999 0.65499997 -0.44499999
0.39500001 0.65499997 -0.44499999
0.36500001 0.66500002 -0.45500001
0.375 0.66500002 -0.45500001
0.36500001 0.67500001 -0.45500001
0.375 0.67500001 -0.45500001
0.38499999 0.66500002 -0.45500001
0.32499999 0.685 -0.47499999
0.32499999 0.69499999 -0.47499999
0.32499999 0.685 -0.465
0.33500001 0.685 -0.465
0.32499999 0.69499999 -0.465
0.33500001 0.69499999 -0.465
0.35499999 0.69499999 -0.47499999
0.345 0.685 -0.465
0.35499999 0.685 -0.465
0.32499999 0.70499998 -0.47499999
0.33500001 0.70499998 -0.47499999
0.32499999 0.71499997 -0.47499999
0.33500001 0.71499997 -0.47499999
0.32499999 0.70499998 -0.465
0.33500001 0.70499998 -0.465
0.32499999 0.71499997 -0.465
0.33500001 0.71499997 -0.465
0.345 0.70499998 -0.47499999
0.35499999 0.70499998 -0.47499999
0.345 0.71499997 -0.47499999
0.345 0.70499998 -0.465
0.35499999 0.70499998 -0.465
0.345 0.71499997 -0.465
0.35499999 0.71499997 -0.465
0.33500001 0.685 -0.45500001
0.32499999 0.69499999 -0.45500001
0.33500001 0.69499999 -0.45500001
0.345 0.685 -0.45500001
0.35499999 0.685 -0.45500001
0.345 0.69499999 -0.45500001
0.32499999 0.70499998 -0.45500001
0.33500001 0.70499998 -0.45500001
0.32499999 0.70499998 -0.44499999
0.375 0.685 -0.47499999
0.36500001 0.69499999 -0.47499999
0.375 0.69499999 -0.47499999
0.36500001 0.69499999 -0.465
0.375 0.69499999 -0.465
0.38499999 0.685 -0.47499999
0.39500001 0.685 -0.47499999
0.38499999 0.685 -0.465
0.39500001 0.685 -0.465
0.38499999 0.69499999 -0.465
0.39500001 0.69499999 -0.465
0.36500001 0.70499998 -0.465
0.375 0.70499998 -0.465
0.36500001 0.71499997 -0.465
0.38499999 0.70499998 -0.465
0.38499999 0.71499997 -0.465
0.39500001 0.685 -0.45500001
0.39500001 0.69499999 -0.45500001
0.36500001 0.71499997 -0.45500001
0.375 0.71499997 -0.45500001
0.38499999 0.70499998 -0.45500001
0.39500001 0.70499998 -0.45500001
0.41499999 0.65499997 -0.47499999
0.405 0.64499998 -0.465
0.41499999 0.64499998 -0.465
0.435 0.65499997 -0.47499999
0.435 0.65499997 -0.465
0.41499999 0.66500002 -0.47499999
0.405 0.67500001 -0.47499999
0.41499999 0.67500001 -0.47499999
0.405 0.67500001 -0.465
0.41499999 0.67500001 -0.465
0.42500001 0.66500002 -0.47499999
0.42500001 0.66500002 -0.465
0.435 0.66500002 -0.465
0.42500001 0.67500001 -0.465
0.435 0.67500001 -0.465
0.405 0.64499998 -0.45500001
0.41499999 0.64499998 -0.45500001
0.405 0.65499997 -0.45500001
0.41499999 0.65499997 -0.45500001
0.41499999 0.64499998 -0.44499999
0.42500001 0.64499998 -0.45500001
0.42500001 0.64499998 -0.44499999
0.41499999 0.67500001 -0.45500001
0.435 0.66500002 -0.45500001
0.42500001 0.67500001 -0.45500001
0.435 0.67500001 -0.45500001
0.45500001 0.64499998 -0.47499999
0.44499999 0.65499997 -0.47499999
0.45500001 0.64499998 -0.465
0.44499999 0.65499997 -0.465
0.45500001 0.65499997 -0.465
0.465 0.64499998 -0.465
0.47499999 0.64499998 -0.465
0.465 0.65499997 -0.465
0.44499999 0.66500002 -0.465
0.44499999 0.67500001 -0.465
0.45500001 0.64499998 -0.45500001
0.44499999 0.65499997 -0.45500001
0.45500001 0.65499997 -0.45500001
0.465 0.64499998 -0.45500001
0.465 0.65499997 -0.45500001
0.47499999 0.65499997 -0.45500001
0.44499999 0.66500002 -0.45500001
0.45500001 0.66500002 -0.45500001
0.44499999 0.67500001 -0.45500001
0.465 0.66500002 -0.45500001
0.405 0.685 -0.465
0.41499999 0.685 -0.465
0.42500001 0.685 -0.465
0.42500001 0.69499999 -0.465
0.405 0.685 -0.45500001
0.41499999 0.685 -0.45500001
0.405 0.69499999 -0.45500001
0.41499999 0.69499999 -0.45500001
0.42500001 0.685 -0.45500001
0.435 0.685 -0.45500001
0.405 0.70499998 -0.45500001
0.32499999 0.72500002 -0.47499999
0.32499999 0.73500001 -0.47499999
0.32499999 0.72500002 -0.465
0.33500001 0.72500002 -0.465
0.32499999 0.73500001 -0.465
0.33500001 0.73500001 -0.465
0.35499999 0.72500002 -0.465
0.345 0.73500001 -0.465
0.32499999 0.745 -0.465
0.32499999 0.755 -0.465
0.32499999 0.73500001 -0.45500001
0.33500001 0.73500001 -0.45500001
0.35499999 0.72500002 -0.45500001
0.345 0.73500001 -0.45500001
0.32499999 0.745 -0.45500001
0.33500001 0.745 -0.45500001
0.32499999 0.755 -0.44499999
0.33500001 0.755 -0.44499999
0.345 0.745 -0.45500001
0.36500001 0.72500002 -0.465
0.36500001 0.72500002 -0.45500001
0.375 0.72500002 -0.45500001
