# .PCD v0.7 - Point Cloud Data file format
VERSION 0.7
FIELDS x y z
SIZE 4 4 4
TYPE F F F
COUNT 1 1 1
WIDTH 1828
HEIGHT 1
VIEWPOINT 0 0 0 1 0 0 0
POINTS 1828
DATA ascii
-2.3050001 1.495 -0.405
-2.3150001 1.505 -0.41499999
-2.3150001 1.515 -0.41499999
-2.3050001 1.515 -0.41499999
-2.3150001 1.505 -0.405
-2.3150001 1.515 -0.405
-2.3150001 1.525 -0.47499999
-2.3050001 1.535 -0.47499999
-2.3150001 1.525 -0.465
-2.3050001 1.525 -0.465
-2.2950001 1.525 -0.465
-2.2950001 1.535 -0.465
-2.3050001 1.545 -0.47499999
-2.3050001 1.5549999 -0.47499999
-2.2950001 1.5549999 -0.47499999
-2.2850001 1.5549999 -0.47499999
-2.2950001 1.545 -0.465
-2.2850001 1.5549999 -0.465
-2.3050001 1.525 -0.45500001
-2.2850001 1.535 -0.45500001
-2.2950001 1.525 -0.44499999
-2.2850001 1.545 -0.45500001
-2.2850001 1.575 -0.47499999
-2.3050001 1.575 -0.44499999
-2.2850001 1.5650001 -0.44499999
-2.2850001 1.575 -0.44499999
-2.2950001 1.585 -0.45500001
-2.2850001 1.595 -0.45500001
-2.2950001 1.585 -0.44499999
-2.2850001 1.585 -0.44499999
-2.2750001 1.585 -0.47499999
-2.3050001 1.535 -0.435
-2.3050001 1.525 -0.42500001
-2.3050001 1.535 -0.42500001
-2.2950001 1.525 -0.42500001
-2.2950001 1.535 -0.42500001
-2.3050001 1.5549999 -0.435
-2.3050001 1.545 -0.42500001
-2.2950001 1.5549999 -0.435
-2.3150001 1.525 -0.41499999
-2.3150001 1.535 -0.41499999
-2.3050001 1.535 -0.405
-2.2950001 1.535 -0.405
-2.2950001 1.5549999 -0.41499999
-2.2950001 1.5650001 -0.435
-2.2850001 1.5650001 -0.435
-2.2950001 1.575 -0.42500001
-2.2950001 1.585 -0.42500001
-2.2850001 1.575 -0.405
-2.2850001 1.585 -0.41499999
-2.2750001 1.595 -0.435
-2.2750001 1.575 -0.405
-2.325 1.455 -0.39500001
-2.335 1.4450001 -0.38499999
-2.325 1.455 -0.38499999
-2.325 1.465 -0.39500001
-2.325 1.475 -0.39500001
-2.325 1.465 -0.38499999
-2.325 1.475 -0.38499999
-2.325 1.4450001 -0.375
-2.325 1.455 -0.36500001
-2.335 1.455 -0.345
-2.325 1.455 -0.345
-2.325 1.465 -0.345
-2.325 1.4450001 -0.33500001
-2.325 1.455 -0.33500001
-2.325 1.4450001 -0.32499999
-2.325 1.455 -0.32499999
-2.325 1.465 -0.32499999
-2.325 1.485 -0.33500001
-2.3150001 1.475 -0.39500001
-2.3150001 1.4450001 -0.375
-2.3150001 1.475 -0.375
-2.3150001 1.465 -0.36500001
-2.3150001 1.485 -0.39500001
-2.3150001 1.495 -0.38499999
-2.3050001 1.505 -0.38499999
-2.2950001 1.515 -0.39500001
-2.3050001 1.495 -0.36500001
-2.3050001 1.505 -0.375
-2.3150001 1.515 -0.375
-2.2950001 1.515 -0.375
-2.3150001 1.465 -0.35499999
-2.3050001 1.475 -0.35499999
-2.3150001 1.4450001 -0.32499999
-2.3150001 1.455 -0.32499999
-2.3150001 1.465 -0.33500001
-2.3150001 1.475 -0.33500001
-2.3150001 1.465 -0.32499999
-2.3150001 1.485 -0.35499999
-2.3050001 1.495 -0.35499999
-2.3150001 1.485 -0.345
-2.3050001 1.485 -0.345
-2.3050001 1.495 -0.345
-2.3150001 1.515 -0.35499999
-2.3050001 1.515 -0.35499999
-2.3150001 1.505 -0.345
-2.3050001 1.505 -0.345
-2.2950001 1.515 -0.35499999
-2.3150001 1.485 -0.33500001
-2.3050001 1.495 -0.33500001
-2.3150001 1.485 -0.32499999
-2.3050001 1.495 -0.32499999
-2.2950001 1.505 -0.33500001
-2.3050001 1.535 -0.38499999
-2.2950001 1.535 -0.38499999
-2.2950001 1.5549999 -0.39500001
-2.2850001 1.5549999 -0.39500001
-2.3050001 1.525 -0.375
-2.3150001 1.525 -0.36500001
-2.2950001 1.535 -0.375
-2.2850001 1.545 -0.375
-2.2950001 1.5549999 -0.375
-2.2950001 1.545 -0.36500001
-2.2750001 1.5549999 -0.36500001
-2.2950001 1.5650001 -0.39500001
-2.2850001 1.575 -0.39500001
-2.2950001 1.5650001 -0.38499999
-2.2850001 1.575 -0.38499999
-2.2850001 1.585 -0.39500001
-2.2850001 1.595 -0.39500001
-2.2850001 1.585 -0.38499999
-2.2950001 1.5650001 -0.375
-2.2850001 1.5650001 -0.375
-2.2850001 1.575 -0.375
-2.2750001 1.595 -0.39500001
-2.2750001 1.595 -0.38499999
-2.2750001 1.5650001 -0.36500001
-2.2750001 1.585 -0.375
-2.3050001 1.525 -0.35499999
-2.3050001 1.525 -0.345
-2.2950001 1.525 -0.35499999
-2.2950001 1.535 -0.35499999
-2.2950001 1.535 -0.345
-2.2950001 1.545 -0.35499999
-2.3150001 1.525 -0.32499999
-2.3050001 1.535 -0.32499999
-2.2950001 1.535 -0.32499999
-2.2950001 1.545 -0.33500001
-2.2850001 1.5549999 -0.33500001
-2.2950001 1.545 -0.32499999
-2.2950001 1.5549999 -0.32499999
-2.2950001 1.575 -0.345
-2.2850001 1.575 -0.345
-2.2950001 1.585 -0.35499999
-2.2850001 1.585 -0.35499999
-2.2950001 1.595 -0.35499999
-2.2850001 1.595 -0.35499999
-2.2850001 1.585 -0.345
-2.3050001 1.5650001 -0.33500001
-2.2950001 1.5650001 -0.33500001
-2.2850001 1.5650001 -0.33500001
-2.2950001 1.575 -0.33500001
-2.2850001 1.575 -0.33500001
-2.2850001 1.5650001 -0.32499999
-2.2850001 1.585 -0.33500001
-2.2850001 1.595 -0.33500001
-2.2850001 1.585 -0.32499999
-2.2950001 1.595 -0.32499999
-2.2850001 1.595 -0.32499999
-2.2750001 1.595 -0.35499999
-2.2750001 1.595 -0.345
-2.2650001 1.595 -0.345
-2.2750001 1.5650001 -0.33500001
-2.2750001 1.585 -0.33500001
-2.2750001 1.595 -0.33500001
-2.2850001 1.615 -0.63499999
-2.2850001 1.605 -0.61500001
-2.2850001 1.615 -0.60500002
-2.2750001 1.615 -0.63499999
-2.2750001 1.615 -0.625
-2.2650001 1.625 -0.63499999
-2.2650001 1.635 -0.625
-2.2750001 1.605 -0.61500001
-2.2650001 1.615 -0.61500001
-2.2750001 1.625 -0.61500001
-2.2750001 1.635 -0.61500001
-2.2650001 1.635 -0.61500001
-2.2750001 1.625 -0.60500002
-2.2750001 1.635 -0.60500002
-2.2550001 1.635 -0.60500002
-2.2650001 1.645 -0.63499999
-2.2750001 1.655 -0.625
-2.2650001 1.655 -0.625
-2.2550001 1.655 -0.63499999
-2.2550001 1.645 -0.625
-2.2650001 1.665 -0.625
-2.2550001 1.665 -0.63499999
-2.2550001 1.665 -0.625
-2.2550001 1.675 -0.625
-2.2449999 1.675 -0.625
-2.2750001 1.645 -0.61500001
-2.2650001 1.645 -0.61500001
-2.2650001 1.655 -0.61500001
-2.2650001 1.645 -0.60500002
-2.2550001 1.665 -0.61500001
-2.2550001 1.665 -0.60500002
-2.2850001 1.605 -0.59500003
-2.2750001 1.605 -0.59500003
-2.2650001 1.605 -0.59500003
-2.2750001 1.615 -0.59500003
-2.2750001 1.605 -0.58499998
-2.2650001 1.605 -0.58499998
-2.2650001 1.625 -0.59500003
-2.2750001 1.635 -0.58499998
-2.2750001 1.615 -0.57499999
-2.2750001 1.615 -0.565
-2.2650001 1.625 -0.57499999
-2.2650001 1.625 -0.565
-2.2550001 1.625 -0.565
-2.2550001 1.635 -0.565
-2.2650001 1.655 -0.59500003
-2.2650001 1.645 -0.58499998
-2.2650001 1.655 -0.58499998
-2.2650001 1.665 -0.59500003
-2.2550001 1.665 -0.59500003
-2.2550001 1.675 -0.59500003
-2.2449999 1.675 -0.58499998
-2.2650001 1.645 -0.57499999
-2.2750001 1.655 -0.57499999
-2.2650001 1.655 -0.57499999
-2.2650001 1.665 -0.57499999
-2.2650001 1.665 -0.565
-2.2550001 1.665 -0.57499999
-2.2550001 1.675 -0.565
-2.2650001 1.6849999 -0.63499999
-2.2550001 1.6849999 -0.63499999
-2.2449999 1.6950001 -0.63499999
-2.2550001 1.6849999 -0.625
-2.2449999 1.705 -0.63499999
-2.2449999 1.705 -0.625
-2.2449999 1.715 -0.625
-2.2449999 1.6950001 -0.61500001
-2.2550001 1.6849999 -0.60500002
-2.2449999 1.6950001 -0.60500002
-2.2550001 1.705 -0.61500001
-2.2449999 1.715 -0.61500001
-2.2550001 1.715 -0.60500002
-2.2449999 1.725 -0.625
-2.2449999 1.725 -0.60500002
-2.2550001 1.6849999 -0.59500003
-2.2550001 1.6950001 -0.59500003
-2.2449999 1.6950001 -0.59500003
-2.2550001 1.6849999 -0.58499998
-2.2449999 1.705 -0.59500003
-2.2449999 1.705 -0.58499998
-2.2449999 1.715 -0.58499998
-2.2650001 1.6950001 -0.565
-2.2550001 1.6950001 -0.57499999
-2.2449999 1.705 -0.57499999
-2.2449999 1.715 -0.565
-2.2850001 1.625 -0.52499998
-2.2750001 1.605 -0.54500002
-2.2650001 1.615 -0.54500002
-2.2750001 1.625 -0.55500001
-2.2650001 1.625 -0.55500001
-2.2750001 1.625 -0.54500002
-2.2750001 1.605 -0.53500003
-2.2750001 1.605 -0.52499998
-2.2750001 1.625 -0.53500003
-2.2750001 1.635 -0.53500003
-2.2650001 1.635 -0.53500003
-2.2750001 1.635 -0.52499998
-2.2750001 1.645 -0.55500001
-2.2650001 1.645 -0.55500001
-2.2650001 1.645 -0.54500002
-2.2650001 1.665 -0.55500001
-2.2650001 1.675 -0.55500001
-2.2750001 1.675 -0.54500002
-2.2650001 1.675 -0.54500002
-2.2750001 1.645 -0.53500003
-2.2650001 1.655 -0.53500003
-2.2750001 1.645 -0.52499998
-2.2650001 1.645 -0.52499998
-2.2650001 1.655 -0.52499998
-2.2650001 1.665 -0.53500003
-2.2650001 1.675 -0.53500003
-2.2550001 1.675 -0.52499998
-2.2850001 1.605 -0.51499999
-2.2850001 1.605 -0.505
-2.2850001 1.615 -0.505
-2.2850001 1.625 -0.51499999
-2.2750001 1.615 -0.51499999
-2.2650001 1.615 -0.51499999
-2.2750001 1.605 -0.505
-2.2750001 1.615 -0.505
-2.2750001 1.625 -0.51499999
-2.2650001 1.625 -0.51499999
-2.2650001 1.625 -0.505
-2.2650001 1.605 -0.495
-2.2750001 1.605 -0.48500001
-2.2650001 1.645 -0.51499999
-2.2750001 1.645 -0.505
-2.2650001 1.665 -0.51499999
-2.2650001 1.675 -0.505
-2.2650001 1.645 -0.48500001
-2.2750001 1.655 -0.48500001
-2.2750001 1.665 -0.495
-2.2650001 1.665 -0.495
-2.2750001 1.675 -0.495
-2.2650001 1.675 -0.495
-2.2750001 1.665 -0.48500001
-2.2650001 1.665 -0.48500001
-2.2550001 1.675 -0.495
-2.2650001 1.6950001 -0.55500001
-2.2650001 1.6849999 -0.54500002
-2.2550001 1.6950001 -0.55500001
-2.2449999 1.6950001 -0.55500001
-2.2550001 1.6849999 -0.54500002
-2.2550001 1.6950001 -0.54500002
-2.2550001 1.705 -0.55500001
-2.2449999 1.705 -0.55500001
-2.2550001 1.6849999 -0.53500003
-2.2449999 1.6950001 -0.53500003
-2.2550001 1.6849999 -0.52499998
-2.2650001 1.6950001 -0.505
-2.2449999 1.6950001 -0.51499999
-2.2550001 1.6950001 -0.505
-2.2650001 1.705 -0.505
-2.2449999 1.705 -0.51499999
-2.2550001 1.715 -0.51499999
-2.2550001 1.705 -0.505
-2.2650001 1.6950001 -0.495
-2.2550001 1.6950001 -0.48500001
-2.2550001 1.705 -0.495
-2.2449999 1.715 -0.495
-2.2550001 1.735 -0.48500001
-2.2850001 1.605 -0.465
-2.2850001 1.615 -0.465
-2.2850001 1.605 -0.45500001
-2.2750001 1.615 -0.47499999
-2.2750001 1.605 -0.465
-2.2750001 1.615 -0.465
-2.2750001 1.625 -0.47499999
-2.2750001 1.635 -0.47499999
-2.2650001 1.625 -0.465
-2.2750001 1.605 -0.44499999
-2.2650001 1.625 -0.44499999
-2.2750001 1.655 -0.47499999
-2.2650001 1.655 -0.465
-2.2650001 1.675 -0.47499999
-2.2550001 1.675 -0.47499999
-2.2750001 1.645 -0.45500001
-2.2650001 1.655 -0.44499999
-2.2650001 1.675 -0.45500001
-2.2449999 1.675 -0.44499999
-2.2850001 1.625 -0.42500001
-2.2850001 1.605 -0.41499999
-2.2850001 1.605 -0.405
-2.2750001 1.615 -0.42500001
-2.2750001 1.625 -0.435
-2.2750001 1.635 -0.435
-2.2650001 1.635 -0.435
-2.2750001 1.605 -0.41499999
-2.2750001 1.615 -0.41499999
-2.2650001 1.615 -0.405
-2.2750001 1.625 -0.41499999
-2.2650001 1.625 -0.41499999
-2.2750001 1.635 -0.41499999
-2.2650001 1.635 -0.41499999
-2.2750001 1.625 -0.405
-2.2550001 1.635 -0.405
-2.2650001 1.645 -0.435
-2.2650001 1.655 -0.435
-2.2650001 1.645 -0.42500001
-2.2650001 1.655 -0.42500001
-2.2650001 1.675 -0.435
-2.2650001 1.665 -0.42500001
-2.2449999 1.675 -0.435
-2.2550001 1.665 -0.42500001
-2.2550001 1.675 -0.42500001
-2.2449999 1.675 -0.42500001
-2.2650001 1.655 -0.41499999
-2.2449999 1.655 -0.41499999
-2.2550001 1.645 -0.405
-2.2449999 1.6950001 -0.465
-2.2449999 1.715 -0.47499999
-2.2550001 1.705 -0.465
-2.2550001 1.6849999 -0.45500001
-2.2550001 1.6950001 -0.45500001
-2.2550001 1.6849999 -0.44499999
-2.2550001 1.6950001 -0.44499999
-2.2449999 1.6950001 -0.44499999
-2.2550001 1.715 -0.45500001
-2.2449999 1.705 -0.44499999
-2.2550001 1.725 -0.45500001
-2.2550001 1.6849999 -0.435
-2.2449999 1.6950001 -0.42500001
-2.2449999 1.705 -0.435
-2.2650001 1.6950001 -0.405
-2.2550001 1.6950001 -0.405
-2.2550001 1.705 -0.41499999
-2.2550001 1.715 -0.41499999
-2.2449999 1.715 -0.41499999
-2.2449999 1.705 -0.405
-2.2449999 1.715 -0.405
-2.2449999 1.725 -0.41499999
-2.2449999 1.725 -0.405
-2.2850001 1.605 -0.39500001
-2.2850001 1.615 -0.36500001
-2.2750001 1.605 -0.39500001
-2.2750001 1.615 -0.39500001
-2.2650001 1.605 -0.38499999
-2.2650001 1.625 -0.39500001
-2.2750001 1.605 -0.36500001
-2.2650001 1.605 -0.36500001
-2.2750001 1.625 -0.375
-2.2650001 1.625 -0.375
-2.2650001 1.635 -0.375
-2.2750001 1.625 -0.36500001
-2.2650001 1.625 -0.36500001
-2.2650001 1.635 -0.36500001
-2.2750001 1.655 -0.38499999
-2.2650001 1.655 -0.38499999
-2.2650001 1.665 -0.39500001
-2.2650001 1.665 -0.38499999
-2.2550001 1.675 -0.39500001
-2.2449999 1.675 -0.39500001
-2.2550001 1.665 -0.38499999
-2.2550001 1.675 -0.38499999
-2.2449999 1.675 -0.38499999
-2.2750001 1.645 -0.375
-2.2650001 1.645 -0.375
-2.2650001 1.655 -0.375
-2.2650001 1.645 -0.36500001
-2.2650001 1.655 -0.36500001
-2.2550001 1.645 -0.375
-2.2550001 1.655 -0.375
-2.2550001 1.655 -0.36500001
-2.2650001 1.665 -0.375
-2.2650001 1.665 -0.36500001
-2.2550001 1.665 -0.375
-2.2550001 1.675 -0.375
-2.2550001 1.665 -0.36500001
-2.2550001 1.675 -0.36500001
-2.2850001 1.605 -0.35499999
-2.2850001 1.615 -0.35499999
-2.2850001 1.605 -0.345
-2.2850001 1.605 -0.32499999
-2.2850001 1.615 -0.32499999
-2.2750001 1.605 -0.35499999
-2.2750001 1.615 -0.35499999
-2.2650001 1.615 -0.35499999
-2.2750001 1.615 -0.345
-2.2750001 1.625 -0.35499999
-2.2750001 1.635 -0.35499999
-2.2650001 1.635 -0.35499999
-2.2750001 1.625 -0.345
-2.2750001 1.635 -0.345
-2.2750001 1.605 -0.33500001
-2.2750001 1.615 -0.33500001
-2.2750001 1.625 -0.33500001
-2.2750001 1.635 -0.33500001
-2.2750001 1.625 -0.32499999
-2.2750001 1.635 -0.32499999
-2.2650001 1.645 -0.35499999
-2.2650001 1.655 -0.35499999
-2.2750001 1.645 -0.345
-2.2650001 1.645 -0.345
-2.2650001 1.665 -0.35499999
-2.2650001 1.675 -0.35499999
-2.2750001 1.665 -0.345
-2.2650001 1.675 -0.345
-2.2550001 1.675 -0.35499999
-2.2750001 1.645 -0.33500001
-2.2650001 1.655 -0.33500001
-2.2750001 1.645 -0.32499999
-2.2650001 1.665 -0.32499999
-2.2650001 1.675 -0.32499999
-2.2650001 1.6849999 -0.38499999
-2.2550001 1.6849999 -0.39500001
-2.2550001 1.6950001 -0.39500001
-2.2449999 1.6950001 -0.39500001
-2.2449999 1.6849999 -0.38499999
-2.2550001 1.6950001 -0.38499999
-2.2449999 1.705 -0.39500001
-2.2550001 1.715 -0.39500001
-2.2449999 1.715 -0.39500001
-2.2449999 1.705 -0.38499999
-2.2650001 1.6849999 -0.375
-2.2550001 1.6849999 -0.375
-2.2550001 1.6950001 -0.375
-2.2449999 1.6950001 -0.375
-2.2550001 1.6950001 -0.36500001
-2.2650001 1.705 -0.36500001
-2.2550001 1.715 -0.36500001
-2.2650001 1.6950001 -0.35499999
-2.2550001 1.6849999 -0.35499999
-2.2550001 1.6950001 -0.35499999
-2.2449999 1.705 -0.345
-2.2449999 1.715 -0.345
-2.2650001 1.6849999 -0.33500001
-2.2650001 1.6849999 -0.32499999
-2.2550001 1.6950001 -0.33500001
-2.2650001 1.705 -0.33500001
-2.2349999 1.705 -0.55500001
-2.2349999 1.705 -0.54500002
-2.2349999 1.725 -0.54500002
-2.2349999 1.715 -0.44499999
-2.2349999 1.725 -0.45500001
-2.2349999 1.725 -0.41499999
-2.2349999 1.725 -0.405
-2.375 1.285 -0.30500001
-2.375 1.295 -0.30500001
-2.365 1.295 -0.30500001
-2.385 1.3049999 -0.30500001
-2.365 1.3049999 -0.315
-2.365 1.3150001 -0.315
-2.375 1.3049999 -0.30500001
-2.375 1.3150001 -0.30500001
-2.385 1.285 -0.29499999
-2.375 1.285 -0.29499999
-2.365 1.285 -0.29499999
-2.365 1.295 -0.285
-2.365 1.3150001 -0.29499999
-2.365 1.325 -0.315
-2.355 1.335 -0.30500001
-2.355 1.355 -0.315
-2.355 1.325 -0.29499999
-2.355 1.325 -0.285
-2.355 1.335 -0.285
-2.355 1.355 -0.29499999
-2.355 1.345 -0.285
-2.355 1.355 -0.285
-2.365 1.285 -0.27500001
-2.365 1.295 -0.26499999
-2.385 1.3049999 -0.26499999
-2.375 1.3150001 -0.27500001
-2.365 1.3049999 -0.26499999
-2.385 1.295 -0.245
-2.375 1.285 -0.255
-2.365 1.295 -0.255
-2.375 1.285 -0.245
-2.365 1.295 -0.245
-2.375 1.3049999 -0.255
-2.365 1.3150001 -0.255
-2.365 1.3049999 -0.245
-2.355 1.3150001 -0.27500001
-2.355 1.3150001 -0.255
-2.355 1.3049999 -0.245
-2.355 1.3150001 -0.245
-2.365 1.325 -0.27500001
-2.375 1.325 -0.26499999
-2.365 1.335 -0.26499999
-2.365 1.345 -0.27500001
-2.365 1.325 -0.255
-2.355 1.335 -0.26499999
-2.355 1.345 -0.27500001
-2.355 1.355 -0.27500001
-2.345 1.355 -0.27500001
-2.355 1.345 -0.26499999
-2.355 1.355 -0.26499999
-2.355 1.335 -0.255
-2.345 1.335 -0.255
-2.355 1.325 -0.245
-2.355 1.365 -0.315
-2.355 1.365 -0.30500001
-2.355 1.375 -0.30500001
-2.345 1.375 -0.30500001
-2.345 1.395 -0.315
-2.345 1.385 -0.30500001
-2.345 1.395 -0.30500001
-2.355 1.365 -0.29499999
-2.345 1.375 -0.29499999
-2.345 1.365 -0.285
-2.345 1.375 -0.285
-2.345 1.395 -0.29499999
-2.345 1.385 -0.285
-2.335 1.395 -0.29499999
-2.335 1.395 -0.285
-2.345 1.405 -0.315
-2.335 1.405 -0.30500001
-2.325 1.405 -0.30500001
-2.325 1.415 -0.30500001
-2.335 1.425 -0.315
-2.325 1.425 -0.315
-2.335 1.4349999 -0.315
-2.325 1.4349999 -0.315
-2.335 1.425 -0.30500001
-2.325 1.425 -0.30500001
-2.335 1.405 -0.29499999
-2.335 1.405 -0.285
-2.325 1.425 -0.29499999
-2.345 1.365 -0.27500001
-2.335 1.365 -0.26499999
-2.345 1.385 -0.27500001
-2.335 1.395 -0.27500001
-2.355 1.365 -0.245
-2.355 1.375 -0.245
-2.345 1.375 -0.245
-2.345 1.385 -0.255
-2.345 1.395 -0.255
-2.345 1.385 -0.245
-2.345 1.395 -0.245
-2.335 1.385 -0.255
-2.335 1.395 -0.255
-2.335 1.385 -0.245
-2.335 1.395 -0.245
-2.345 1.405 -0.26499999
-2.335 1.405 -0.26499999
-2.335 1.415 -0.26499999
-2.335 1.425 -0.27500001
-2.335 1.4349999 -0.27500001
-2.325 1.4349999 -0.27500001
-2.335 1.425 -0.26499999
-2.325 1.425 -0.26499999
-2.325 1.4349999 -0.26499999
-2.335 1.405 -0.255
-2.335 1.415 -0.255
-2.335 1.405 -0.245
-2.335 1.415 -0.245
-2.325 1.425 -0.255
-2.325 1.4349999 -0.255
-2.335 1.425 -0.245
-2.325 1.425 -0.245
-2.3150001 1.4349999 -0.30500001
-2.3150001 1.405 -0.285
-2.3150001 1.415 -0.255
-2.375 1.285 -0.235
-2.365 1.295 -0.235
-2.365 1.285 -0.22499999
-2.385 1.285 -0.205
-2.375 1.285 -0.205
-2.365 1.285 -0.205
-2.375 1.295 -0.205
-2.375 1.3049999 -0.215
-2.365 1.3049999 -0.215
-2.365 1.3150001 -0.215
-2.375 1.3049999 -0.205
-2.365 1.3049999 -0.205
-2.355 1.295 -0.235
-2.355 1.3150001 -0.215
-2.355 1.3049999 -0.205
-2.365 1.325 -0.22499999
-2.365 1.335 -0.22499999
-2.365 1.355 -0.235
-2.365 1.345 -0.22499999
-2.365 1.325 -0.215
-2.365 1.335 -0.205
-2.355 1.335 -0.235
-2.355 1.325 -0.22499999
-2.355 1.335 -0.22499999
-2.355 1.355 -0.235
-2.355 1.345 -0.22499999
-2.345 1.345 -0.22499999
-2.345 1.355 -0.22499999
-2.355 1.325 -0.215
-2.345 1.325 -0.215
-2.355 1.335 -0.215
-2.345 1.335 -0.215
-2.355 1.325 -0.205
-2.355 1.335 -0.205
-2.355 1.345 -0.215
-2.345 1.345 -0.215
-2.355 1.355 -0.215
-2.355 1.345 -0.205
-2.345 1.345 -0.205
-2.355 1.355 -0.205
-2.345 1.355 -0.205
-2.385 1.285 -0.19499999
-2.375 1.285 -0.19499999
-2.365 1.285 -0.19499999
-2.375 1.295 -0.19499999
-2.365 1.295 -0.19499999
-2.365 1.285 -0.185
-2.375 1.295 -0.185
-2.365 1.295 -0.185
-2.365 1.3150001 -0.19499999
-2.375 1.3049999 -0.185
-2.365 1.3049999 -0.185
-2.365 1.3150001 -0.185
-2.375 1.285 -0.175
-2.365 1.295 -0.175
-2.375 1.285 -0.16500001
-2.365 1.285 -0.16500001
-2.365 1.295 -0.16500001
-2.385 1.3150001 -0.175
-2.365 1.3150001 -0.175
-2.365 1.3049999 -0.16500001
-2.355 1.295 -0.19499999
-2.365 1.325 -0.19499999
-2.375 1.335 -0.19499999
-2.375 1.325 -0.185
-2.365 1.355 -0.19499999
-2.365 1.345 -0.185
-2.365 1.325 -0.175
-2.365 1.335 -0.175
-2.365 1.325 -0.16500001
-2.365 1.335 -0.16500001
-2.365 1.345 -0.16500001
-2.355 1.335 -0.19499999
-2.355 1.325 -0.185
-2.355 1.355 -0.19499999
-2.355 1.345 -0.185
-2.355 1.355 -0.185
-2.355 1.335 -0.16500001
-2.355 1.355 -0.175
-2.355 1.355 -0.16500001
-2.365 1.365 -0.205
-2.355 1.365 -0.235
-2.345 1.365 -0.235
-2.345 1.365 -0.22499999
-2.345 1.375 -0.22499999
-2.335 1.365 -0.235
-2.335 1.365 -0.22499999
-2.345 1.385 -0.235
-2.345 1.395 -0.235
-2.345 1.385 -0.22499999
-2.345 1.395 -0.22499999
-2.335 1.385 -0.235
-2.335 1.395 -0.235
-2.335 1.385 -0.22499999
-2.355 1.365 -0.215
-2.345 1.365 -0.215
-2.355 1.375 -0.215
-2.345 1.375 -0.215
-2.355 1.375 -0.205
-2.345 1.395 -0.215
-2.345 1.385 -0.205
-2.335 1.395 -0.205
-2.345 1.415 -0.235
-2.345 1.405 -0.22499999
-2.335 1.405 -0.235
-2.335 1.415 -0.22499999
-2.325 1.415 -0.22499999
-2.335 1.425 -0.235
-2.325 1.425 -0.235
-2.335 1.4349999 -0.235
-2.335 1.4349999 -0.22499999
-2.345 1.405 -0.215
-2.335 1.405 -0.215
-2.325 1.415 -0.215
-2.335 1.415 -0.205
-2.335 1.425 -0.205
-2.355 1.375 -0.19499999
-2.345 1.375 -0.185
-2.345 1.395 -0.19499999
-2.345 1.385 -0.185
-2.335 1.395 -0.19499999
-2.355 1.365 -0.175
-2.345 1.365 -0.175
-2.345 1.395 -0.16500001
-2.345 1.405 -0.19499999
-2.335 1.4349999 -0.185
-2.355 1.415 -0.16500001
-2.335 1.405 -0.16500001
-2.335 1.415 -0.16500001
-2.345 1.425 -0.175
-2.345 1.4349999 -0.175
-2.335 1.425 -0.175
-2.325 1.425 -0.175
-2.335 1.4349999 -0.175
-2.325 1.4349999 -0.175
-2.335 1.425 -0.16500001
-2.325 1.425 -0.16500001
-2.325 1.4349999 -0.16500001
-2.325 1.4450001 -0.315
-2.325 1.4450001 -0.285
-2.325 1.455 -0.285
-2.325 1.465 -0.29499999
-2.325 1.475 -0.29499999
-2.325 1.475 -0.285
-2.325 1.485 -0.29499999
-2.335 1.4450001 -0.27500001
-2.325 1.4450001 -0.27500001
-2.325 1.455 -0.27500001
-2.325 1.4450001 -0.26499999
-2.325 1.475 -0.26499999
-2.335 1.4450001 -0.255
-2.325 1.4450001 -0.255
-2.335 1.4450001 -0.245
-2.335 1.455 -0.245
-2.325 1.455 -0.245
-2.325 1.475 -0.255
-2.325 1.465 -0.245
-2.325 1.475 -0.245
-2.325 1.485 -0.26499999
-2.325 1.495 -0.26499999
-2.325 1.485 -0.255
-2.3050001 1.4450001 -0.30500001
-2.3050001 1.465 -0.315
-2.3150001 1.465 -0.29499999
-2.3150001 1.475 -0.29499999
-2.3150001 1.465 -0.285
-2.3150001 1.475 -0.285
-2.3150001 1.485 -0.30500001
-2.3150001 1.495 -0.30500001
-2.3150001 1.505 -0.315
-2.3050001 1.505 -0.315
-2.3150001 1.515 -0.315
-2.3050001 1.515 -0.315
-2.3050001 1.505 -0.30500001
-2.2950001 1.505 -0.30500001
-2.2950001 1.515 -0.30500001
-2.3150001 1.485 -0.29499999
-2.3050001 1.485 -0.29499999
-2.3050001 1.495 -0.29499999
-2.3150001 1.485 -0.285
-2.3150001 1.495 -0.285
-2.2950001 1.495 -0.29499999
-2.3050001 1.505 -0.29499999
-2.3050001 1.515 -0.29499999
-2.3050001 1.505 -0.285
-2.3050001 1.515 -0.285
-2.2950001 1.515 -0.29499999
-2.3150001 1.455 -0.27500001
-2.3150001 1.4450001 -0.26499999
-2.3150001 1.455 -0.26499999
-2.3150001 1.465 -0.27500001
-2.3050001 1.465 -0.27500001
-2.3150001 1.475 -0.27500001
-2.3050001 1.475 -0.27500001
-2.3150001 1.465 -0.26499999
-2.3150001 1.4450001 -0.255
-2.3150001 1.455 -0.255
-2.3150001 1.465 -0.255
-2.3150001 1.485 -0.27500001
-2.3050001 1.485 -0.27500001
-2.3150001 1.495 -0.27500001
-2.3150001 1.495 -0.26499999
-2.3050001 1.495 -0.26499999
-2.3150001 1.505 -0.27500001
-2.3150001 1.515 -0.27500001
-2.2950001 1.505 -0.26499999
-2.3150001 1.495 -0.245
-2.3150001 1.505 -0.255
-2.3050001 1.515 -0.255
-2.3150001 1.505 -0.245
-2.3050001 1.525 -0.315
-2.3050001 1.535 -0.315
-2.2950001 1.525 -0.315
-2.2950001 1.535 -0.315
-2.2950001 1.525 -0.30500001
-2.2950001 1.535 -0.30500001
-2.3050001 1.5549999 -0.30500001
-2.2950001 1.545 -0.315
-2.2850001 1.545 -0.315
-2.2850001 1.5549999 -0.315
-2.2950001 1.545 -0.30500001
-2.2850001 1.545 -0.30500001
-2.2950001 1.5549999 -0.30500001
-2.3050001 1.525 -0.29499999
-2.3050001 1.535 -0.29499999
-2.3050001 1.525 -0.285
-2.3150001 1.535 -0.285
-2.3050001 1.545 -0.29499999
-2.3050001 1.545 -0.285
-2.2950001 1.5549999 -0.29499999
-2.2950001 1.5549999 -0.285
-2.3050001 1.5650001 -0.315
-2.2950001 1.5650001 -0.315
-2.2950001 1.575 -0.315
-2.2950001 1.575 -0.30500001
-2.2850001 1.585 -0.315
-2.2850001 1.595 -0.315
-2.2950001 1.585 -0.30500001
-2.2850001 1.585 -0.30500001
-2.2950001 1.5650001 -0.29499999
-2.2850001 1.575 -0.29499999
-2.2950001 1.5650001 -0.285
-2.2850001 1.585 -0.285
-2.2850001 1.595 -0.285
-2.3050001 1.525 -0.27500001
-2.3050001 1.535 -0.27500001
-2.3050001 1.535 -0.26499999
-2.3050001 1.545 -0.26499999
-2.2950001 1.545 -0.26499999
-2.2950001 1.5549999 -0.26499999
-2.3150001 1.525 -0.255
-2.3050001 1.535 -0.255
-2.2950001 1.5650001 -0.27500001
-2.2950001 1.575 -0.27500001
-2.3050001 1.5650001 -0.245
-2.2950001 1.5650001 -0.245
-2.2850001 1.5650001 -0.245
-2.2950001 1.575 -0.245
-2.2850001 1.575 -0.245
-2.2950001 1.585 -0.255
-2.2850001 1.585 -0.255
-2.2950001 1.595 -0.255
-2.2850001 1.595 -0.255
-2.2950001 1.585 -0.245
-2.2850001 1.585 -0.245
-2.2750001 1.595 -0.245
-2.335 1.4450001 -0.235
-2.325 1.465 -0.235
-2.325 1.465 -0.22499999
-2.335 1.4450001 -0.215
-2.325 1.455 -0.215
-2.325 1.475 -0.205
-2.325 1.485 -0.235
-2.325 1.505 -0.215
-2.335 1.4450001 -0.185
-2.335 1.455 -0.185
-2.325 1.455 -0.185
-2.335 1.465 -0.19499999
-2.325 1.465 -0.19499999
-2.325 1.475 -0.19499999
-2.325 1.465 -0.185
-2.325 1.475 -0.185
-2.335 1.4450001 -0.175
-2.325 1.4450001 -0.16500001
-2.325 1.465 -0.175
-2.325 1.485 -0.19499999
-2.3150001 1.455 -0.22499999
-2.3150001 1.475 -0.235
-2.3050001 1.485 -0.235
-2.2950001 1.515 -0.22499999
-2.3150001 1.485 -0.205
-2.3150001 1.495 -0.205
-2.3150001 1.505 -0.215
-2.3050001 1.505 -0.215
-2.3150001 1.515 -0.215
-2.3150001 1.505 -0.205
-2.3050001 1.505 -0.205
-2.2950001 1.505 -0.215
-2.2950001 1.515 -0.205
-2.3150001 1.475 -0.19499999
-2.3150001 1.475 -0.185
-2.3150001 1.4450001 -0.16500001
-2.3150001 1.465 -0.175
-2.3150001 1.485 -0.19499999
-2.3150001 1.495 -0.19499999
-2.3050001 1.495 -0.19499999
-2.3150001 1.485 -0.185
-2.3050001 1.505 -0.19499999
-2.2950001 1.505 -0.19499999
-2.3150001 1.495 -0.16500001
-2.3050001 1.515 -0.175
-2.3050001 1.515 -0.16500001
-2.3150001 1.525 -0.22499999
-2.3050001 1.525 -0.22499999
-2.3050001 1.535 -0.22499999
-2.2950001 1.535 -0.235
-2.2950001 1.535 -0.22499999
-2.3050001 1.5549999 -0.235
-2.3050001 1.545 -0.22499999
-2.3050001 1.5549999 -0.22499999
-2.2950001 1.545 -0.235
-2.2950001 1.5549999 -0.235
-2.2850001 1.5549999 -0.235
-2.3150001 1.525 -0.215
-2.3050001 1.525 -0.215
-2.3150001 1.535 -0.215
-2.3050001 1.535 -0.215
-2.3050001 1.525 -0.205
-2.2950001 1.535 -0.215
-2.2950001 1.535 -0.205
-2.2950001 1.545 -0.215
-2.2850001 1.545 -0.215
-2.2950001 1.5650001 -0.235
-2.2950001 1.575 -0.235
-2.2950001 1.5650001 -0.22499999
-2.2850001 1.5650001 -0.22499999
-2.2850001 1.585 -0.235
-2.2850001 1.595 -0.215
-2.2950001 1.585 -0.205
-2.2850001 1.595 -0.205
-2.2750001 1.5650001 -0.22499999
-2.2750001 1.585 -0.235
-2.3050001 1.545 -0.185
-2.2950001 1.545 -0.19499999
-2.2950001 1.5549999 -0.185
-2.3050001 1.535 -0.175
-2.3050001 1.525 -0.16500001
-2.3050001 1.535 -0.16500001
-2.2950001 1.525 -0.16500001
-2.2950001 1.535 -0.16500001
-2.3050001 1.545 -0.175
-2.2950001 1.545 -0.175
-2.2950001 1.5549999 -0.175
-2.2950001 1.5650001 -0.19499999
-2.2950001 1.5650001 -0.185
-2.2850001 1.5650001 -0.185
-2.2950001 1.575 -0.185
-2.2850001 1.575 -0.185
-2.2850001 1.585 -0.19499999
-2.2950001 1.595 -0.19499999
-2.2850001 1.595 -0.19499999
-2.2950001 1.5650001 -0.175
-2.2850001 1.585 -0.16500001
-2.2950001 1.595 -0.16500001
-2.2850001 1.595 -0.16500001
-2.2750001 1.575 -0.19499999
-2.2750001 1.595 -0.19499999
-2.2750001 1.585 -0.185
-2.385 1.285 -0.155
-2.375 1.295 -0.145
-2.385 1.3049999 -0.155
-2.375 1.3150001 -0.155
-2.365 1.3150001 -0.155
-2.365 1.3049999 -0.145
-2.385 1.285 -0.13500001
-2.365 1.285 -0.13500001
-2.365 1.3150001 -0.125
-2.355 1.295 -0.145
-2.365 1.355 -0.145
-2.365 1.325 -0.125
-2.365 1.335 -0.125
-2.365 1.345 -0.13500001
-2.365 1.355 -0.13500001
-2.365 1.355 -0.125
-2.355 1.325 -0.155
-2.345 1.355 -0.145
-2.355 1.335 -0.13500001
-2.355 1.335 -0.125
-2.355 1.345 -0.13500001
-2.355 1.355 -0.13500001
-2.355 1.355 -0.125
-2.345 1.355 -0.125
-2.385 1.285 -0.105
-2.375 1.295 -0.115
-2.375 1.285 -0.105
-2.375 1.295 -0.105
-2.365 1.295 -0.105
-2.375 1.3049999 -0.115
-2.365 1.3049999 -0.115
-2.375 1.3150001 -0.115
-2.365 1.3150001 -0.115
-2.365 1.3049999 -0.105
-2.365 1.3150001 -0.105
-2.385 1.285 -0.094999999
-2.375 1.285 -0.094999999
-2.365 1.295 -0.094999999
-2.375 1.285 -0.085000001
-2.365 1.285 -0.085000001
-2.365 1.3049999 -0.094999999
-2.365 1.325 -0.115
-2.375 1.335 -0.115
-2.365 1.325 -0.105
-2.365 1.325 -0.085000001
-2.365 1.335 -0.085000001
-2.355 1.335 -0.115
-2.355 1.325 -0.105
-2.355 1.345 -0.115
-2.355 1.345 -0.094999999
-2.355 1.355 -0.085000001
-2.345 1.355 -0.085000001
-2.365 1.365 -0.145
-2.355 1.365 -0.145
-2.345 1.365 -0.145
-2.355 1.375 -0.145
-2.345 1.375 -0.145
-2.355 1.385 -0.155
-2.345 1.385 -0.155
-2.355 1.395 -0.155
-2.345 1.395 -0.155
-2.355 1.385 -0.145
-2.345 1.385 -0.145
-2.345 1.395 -0.145
-2.335 1.395 -0.145
-2.355 1.365 -0.13500001
-2.345 1.365 -0.13500001
-2.345 1.365 -0.125
-2.335 1.365 -0.13500001
-2.345 1.385 -0.13500001
-2.335 1.385 -0.13500001
-2.355 1.405 -0.155
-2.345 1.405 -0.155
-2.345 1.415 -0.155
-2.335 1.405 -0.145
-2.325 1.405 -0.145
-2.335 1.425 -0.155
-2.325 1.425 -0.155
-2.335 1.415 -0.125
-2.335 1.425 -0.125
-2.325 1.4349999 -0.125
-2.365 1.365 -0.094999999
-2.345 1.375 -0.105
-2.345 1.385 -0.115
-2.345 1.395 -0.105
-2.335 1.395 -0.115
-2.345 1.375 -0.094999999
-2.355 1.365 -0.085000001
-2.345 1.365 -0.085000001
-2.345 1.385 -0.094999999
-2.345 1.395 -0.094999999
-2.335 1.385 -0.094999999
-2.335 1.395 -0.094999999
-2.345 1.415 -0.115
-2.345 1.405 -0.105
-2.345 1.415 -0.105
-2.335 1.415 -0.115
-2.335 1.405 -0.105
-2.325 1.415 -0.105
-2.335 1.425 -0.115
-2.335 1.4349999 -0.115
-2.335 1.415 -0.085000001
-2.325 1.4349999 -0.094999999
-2.335 1.425 -0.085000001
-2.3150001 1.4349999 -0.125
-2.375 1.285 -0.064999998
-2.365 1.295 -0.064999998
-2.365 1.3150001 -0.075000003
-2.365 1.3150001 -0.064999998
-2.375 1.285 -0.055
-2.365 1.285 -0.055
-2.375 1.295 -0.055
-2.365 1.295 -0.055
-2.375 1.285 -0.045000002
-2.365 1.285 -0.045000002
-2.375 1.3049999 -0.055
-2.365 1.3049999 -0.055
-2.355 1.3150001 -0.064999998
-2.365 1.335 -0.064999998
-2.365 1.355 -0.075000003
-2.355 1.335 -0.075000003
-2.355 1.325 -0.064999998
-2.345 1.325 -0.064999998
-2.355 1.345 -0.075000003
-2.355 1.355 -0.075000003
-2.355 1.325 -0.045000002
-2.355 1.335 -0.045000002
-2.355 1.355 -0.055
-2.355 1.345 -0.045000002
-2.365 1.285 -0.025
-2.375 1.295 -0.025
-2.375 1.3150001 -0.035
-2.365 1.3049999 -0.025
-2.375 1.285 -0.015
-2.375 1.285 -0.0049999999
-2.375 1.3049999 -0.0049999999
-2.365 1.3049999 -0.0049999999
-2.375 1.3150001 -0.0049999999
-2.365 1.3150001 -0.0049999999
-2.355 1.3049999 -0.015
-2.355 1.3150001 -0.0049999999
-2.365 1.335 -0.025
-2.365 1.345 -0.035
-2.365 1.355 -0.025
-2.365 1.325 -0.015
-2.365 1.335 -0.015
-2.355 1.325 -0.035
-2.355 1.335 -0.025
-2.355 1.345 -0.035
-2.355 1.355 -0.035
-2.355 1.345 -0.025
-2.355 1.355 -0.025
-2.345 1.355 -0.025
-2.355 1.325 -0.015
-2.345 1.335 -0.015
-2.345 1.325 -0.0049999999
-2.355 1.345 -0.015
-2.365 1.385 -0.055
-2.355 1.385 -0.064999998
-2.345 1.395 -0.064999998
-2.335 1.385 -0.064999998
-2.355 1.365 -0.055
-2.345 1.365 -0.055
-2.345 1.375 -0.045000002
-2.345 1.385 -0.045000002
-2.345 1.395 -0.045000002
-2.335 1.385 -0.045000002
-2.345 1.405 -0.075000003
-2.335 1.415 -0.075000003
-2.335 1.415 -0.064999998
-2.345 1.425 -0.064999998
-2.325 1.4349999 -0.075000003
-2.335 1.425 -0.064999998
-2.325 1.425 -0.064999998
-2.335 1.4349999 -0.064999998
-2.345 1.405 -0.055
-2.345 1.415 -0.055
-2.345 1.405 -0.045000002
-2.335 1.415 -0.055
-2.325 1.415 -0.055
-2.335 1.405 -0.045000002
-2.345 1.425 -0.055
-2.345 1.4349999 -0.055
-2.365 1.365 -0.025
-2.355 1.365 -0.035
-2.345 1.365 -0.035
-2.355 1.375 -0.035
-2.345 1.375 -0.035
-2.355 1.365 -0.025
-2.335 1.375 -0.035
-2.335 1.365 -0.025
-2.345 1.385 -0.035
-2.335 1.395 -0.035
-2.345 1.365 -0.0049999999
-2.355 1.375 -0.0049999999
-2.345 1.395 -0.015
-2.355 1.385 -0.0049999999
-2.345 1.385 -0.0049999999
-2.355 1.395 -0.0049999999
-2.335 1.385 -0.0049999999
-2.335 1.395 -0.0049999999
-2.345 1.405 -0.025
-2.345 1.425 -0.025
-2.345 1.4349999 -0.025
-2.325 1.425 -0.035
-2.335 1.4349999 -0.035
-2.335 1.425 -0.025
-2.325 1.425 -0.025
-2.345 1.405 -0.015
-2.345 1.415 -0.015
-2.345 1.405 -0.0049999999
-2.345 1.415 -0.0049999999
-2.335 1.415 -0.015
-2.335 1.405 -0.0049999999
-2.335 1.415 -0.0049999999
-2.345 1.4349999 -0.015
-2.335 1.425 -0.015
-2.325 1.425 -0.015
-2.335 1.4349999 -0.015
-2.335 1.4349999 -0.0049999999
-2.325 1.4349999 -0.0049999999
-2.3150001 1.4349999 -0.064999998
-2.3150001 1.425 -0.055
-2.3150001 1.4349999 -0.025
-2.3150001 1.4349999 -0.015
-2.325 1.4450001 -0.145
-2.325 1.475 -0.155
-2.325 1.465 -0.145
-2.335 1.4450001 -0.13500001
-2.325 1.455 -0.13500001
-2.335 1.4450001 -0.125
-2.325 1.455 -0.125
-2.325 1.465 -0.13500001
-2.325 1.485 -0.145
-2.325 1.455 -0.105
-2.325 1.475 -0.105
-2.325 1.455 -0.094999999
-2.335 1.4450001 -0.085000001
-2.325 1.465 -0.094999999
-2.325 1.475 -0.094999999
-2.335 1.465 -0.085000001
-2.325 1.475 -0.085000001
-2.325 1.485 -0.115
-2.325 1.495 -0.115
-2.325 1.485 -0.094999999
-2.325 1.495 -0.094999999
-2.325 1.485 -0.085000001
-2.3150001 1.475 -0.145
-2.3150001 1.4450001 -0.125
-2.3150001 1.465 -0.13500001
-2.3150001 1.475 -0.13500001
-2.3150001 1.485 -0.155
-2.3050001 1.495 -0.155
-2.3150001 1.485 -0.145
-2.3050001 1.485 -0.145
-2.3150001 1.495 -0.145
-2.3050001 1.495 -0.145
-2.3150001 1.505 -0.155
-2.3050001 1.505 -0.155
-2.3050001 1.515 -0.155
-2.3050001 1.515 -0.13500001
-2.3050001 1.505 -0.125
-2.3050001 1.515 -0.125
-2.3150001 1.465 -0.105
-2.3150001 1.455 -0.085000001
-2.3150001 1.475 -0.085000001
-2.3150001 1.485 -0.115
-2.3050001 1.495 -0.115
-2.3050001 1.515 -0.115
-2.3150001 1.505 -0.105
-2.3050001 1.505 -0.105
-2.3150001 1.515 -0.105
-2.3050001 1.515 -0.105
-2.3050001 1.485 -0.094999999
-2.3150001 1.495 -0.094999999
-2.3150001 1.485 -0.085000001
-2.3050001 1.485 -0.085000001
-2.3050001 1.495 -0.085000001
-2.3150001 1.505 -0.094999999
-2.3050001 1.505 -0.094999999
-2.3050001 1.545 -0.145
-2.2950001 1.5549999 -0.145
-2.2850001 1.5549999 -0.145
-2.3050001 1.525 -0.13500001
-2.3050001 1.545 -0.13500001
-2.3050001 1.545 -0.125
-2.2950001 1.5549999 -0.125
-2.2950001 1.575 -0.155
-2.2850001 1.575 -0.155
-2.2950001 1.585 -0.145
-2.2950001 1.595 -0.145
-2.2850001 1.595 -0.145
-2.2850001 1.5650001 -0.13500001
-2.2850001 1.575 -0.13500001
-2.2950001 1.5650001 -0.125
-2.2850001 1.575 -0.125
-2.2950001 1.585 -0.13500001
-2.2850001 1.585 -0.13500001
-2.2950001 1.595 -0.13500001
-2.2750001 1.595 -0.155
-2.2750001 1.595 -0.145
-2.2750001 1.5650001 -0.125
-2.2750001 1.575 -0.125
-2.2750001 1.595 -0.13500001
-2.3050001 1.525 -0.115
-2.3050001 1.535 -0.115
-2.3050001 1.525 -0.105
-2.3050001 1.535 -0.105
-2.2950001 1.535 -0.115
-2.2950001 1.535 -0.105
-2.3050001 1.545 -0.115
-2.3050001 1.5549999 -0.115
-2.2950001 1.545 -0.115
-2.3050001 1.525 -0.094999999
-2.3050001 1.525 -0.085000001
-2.3050001 1.545 -0.085000001
-2.3050001 1.5549999 -0.085000001
-2.2950001 1.545 -0.085000001
-2.2850001 1.5549999 -0.085000001
-2.2750001 1.5549999 -0.115
-2.2950001 1.575 -0.105
-2.2850001 1.595 -0.115
-2.2850001 1.585 -0.105
-2.2950001 1.595 -0.105
-2.2850001 1.595 -0.105
-2.3050001 1.5650001 -0.094999999
-2.3050001 1.5650001 -0.085000001
-2.3050001 1.575 -0.085000001
-2.2950001 1.5650001 -0.094999999
-2.2950001 1.575 -0.094999999
-2.2950001 1.5650001 -0.085000001
-2.2850001 1.5650001 -0.085000001
-2.2950001 1.575 -0.085000001
-2.2950001 1.585 -0.094999999
-2.2850001 1.585 -0.094999999
-2.2850001 1.595 -0.094999999
-2.2850001 1.585 -0.085000001
-2.2750001 1.595 -0.094999999
-2.2750001 1.595 -0.085000001
-2.325 1.4450001 -0.075000003
-2.335 1.455 -0.075000003
-2.325 1.455 -0.075000003
-2.335 1.4450001 -0.064999998
-2.325 1.4450001 -0.064999998
-2.335 1.465 -0.075000003
-2.335 1.475 -0.075000003
-2.325 1.475 -0.075000003
-2.325 1.455 -0.045000002
-2.325 1.475 -0.055
-2.325 1.465 -0.045000002
-2.325 1.475 -0.045000002
-2.325 1.485 -0.055
-2.325 1.495 -0.055
-2.325 1.485 -0.045000002
-2.325 1.495 -0.045000002
-2.325 1.505 -0.055
-2.345 1.4450001 -0.025
-2.335 1.4450001 -0.035
-2.325 1.4450001 -0.035
-2.335 1.455 -0.035
-2.335 1.4450001 -0.025
-2.325 1.4450001 -0.025
-2.335 1.455 -0.025
-2.325 1.455 -0.025
-2.325 1.465 -0.035
-2.325 1.475 -0.035
-2.325 1.475 -0.025
-2.325 1.4450001 -0.0049999999
-2.335 1.455 -0.0049999999
-2.325 1.455 -0.0049999999
-2.335 1.465 -0.015
-2.325 1.465 -0.015
-2.325 1.465 -0.0049999999
-2.325 1.475 -0.0049999999
-2.325 1.505 -0.015
-2.3150001 1.455 -0.075000003
-2.3150001 1.455 -0.064999998
-2.3050001 1.465 -0.075000003
-2.3150001 1.495 -0.064999998
-2.3150001 1.505 -0.064999998
-2.3150001 1.515 -0.064999998
-2.2950001 1.515 -0.064999998
-2.3050001 1.485 -0.055
-2.3150001 1.495 -0.055
-2.3150001 1.485 -0.045000002
-2.3050001 1.485 -0.045000002
-2.3150001 1.495 -0.045000002
-2.3050001 1.505 -0.055
-2.3050001 1.515 -0.055
-2.3050001 1.505 -0.045000002
-2.2950001 1.515 -0.045000002
-2.3150001 1.455 -0.035
-2.3150001 1.455 -0.025
-2.3150001 1.465 -0.035
-2.3150001 1.465 -0.025
-2.3150001 1.475 -0.025
-2.3150001 1.475 -0.015
-2.3150001 1.465 -0.0049999999
-2.3150001 1.475 -0.0049999999
-2.3150001 1.485 -0.035
-2.3050001 1.495 -0.035
-2.3150001 1.485 -0.025
-2.3050001 1.505 -0.035
-2.3150001 1.515 -0.035
-2.3150001 1.505 -0.025
-2.3150001 1.515 -0.025
-2.3050001 1.515 -0.025
-2.3150001 1.485 -0.015
-2.3050001 1.485 -0.015
-2.3150001 1.495 -0.015
-2.3050001 1.485 -0.0049999999
-2.3150001 1.505 -0.015
-2.3050001 1.505 -0.015
-2.3150001 1.505 -0.0049999999
-2.3050001 1.515 -0.0049999999
-2.325 1.525 -0.064999998
-2.3150001 1.525 -0.075000003
-2.3050001 1.525 -0.075000003
-2.3150001 1.535 -0.075000003
-2.3050001 1.525 -0.064999998
-2.3050001 1.535 -0.064999998
-2.2850001 1.535 -0.075000003
-2.3050001 1.545 -0.075000003
-2.2950001 1.545 -0.075000003
-2.2950001 1.5549999 -0.075000003
-2.2950001 1.545 -0.064999998
-2.2850001 1.5549999 -0.064999998
-2.3050001 1.525 -0.055
-2.3050001 1.535 -0.055
-2.3150001 1.535 -0.045000002
-2.2950001 1.535 -0.055
-2.3050001 1.5549999 -0.055
-2.2950001 1.545 -0.055
-2.2950001 1.545 -0.045000002
-2.2950001 1.5549999 -0.045000002
-2.2850001 1.5549999 -0.045000002
-2.2950001 1.5650001 -0.075000003
-2.2950001 1.575 -0.075000003
-2.2950001 1.5650001 -0.064999998
-2.3050001 1.585 -0.064999998
-2.2950001 1.585 -0.075000003
-2.2850001 1.585 -0.075000003
-2.2850001 1.595 -0.075000003
-2.2950001 1.595 -0.064999998
-2.2850001 1.595 -0.064999998
-2.2950001 1.5650001 -0.055
-2.2950001 1.575 -0.055
-2.2850001 1.575 -0.055
-2.2850001 1.5650001 -0.045000002
-2.2850001 1.575 -0.045000002
-2.2950001 1.585 -0.055
-2.2850001 1.585 -0.055
-2.2850001 1.585 -0.045000002
-2.2750001 1.595 -0.064999998
-2.2750001 1.585 -0.045000002
-2.3050001 1.535 -0.035
-2.3050001 1.535 -0.025
-2.2950001 1.525 -0.035
-2.2950001 1.535 -0.035
-2.2950001 1.545 -0.035
-2.2950001 1.5549999 -0.035
-2.2950001 1.5549999 -0.025
-2.3050001 1.525 -0.015
-2.3150001 1.525 -0.0049999999
-2.3050001 1.535 -0.0049999999
-2.2950001 1.525 -0.015
-2.3050001 1.545 -0.015
-2.2950001 1.545 -0.015
-2.2950001 1.5650001 -0.035
-2.2850001 1.575 -0.035
-2.2950001 1.575 -0.025
-2.2950001 1.585 -0.035
-2.3050001 1.5650001 -0.015
-2.2850001 1.595 -0.0049999999
-2.2750001 1.575 -0.035
-2.2750001 1.575 -0.0049999999
-2.2850001 1.615 -0.315
-2.2850001 1.605 -0.30500001
-2.2850001 1.605 -0.29499999
-2.2850001 1.615 -0.29499999
-2.2750001 1.625 -0.30500001
-2.2650001 1.635 -0.30500001
-2.2750001 1.605 -0.29499999
-2.2850001 1.655 -0.285
-2.2750001 1.645 -0.315
-2.2750001 1.655 -0.315
-2.2650001 1.655 -0.315
-2.2550001 1.675 -0.30500001
-2.2650001 1.655 -0.29499999
-2.2750001 1.645 -0.285
-2.2650001 1.655 -0.285
-2.2650001 1.665 -0.29499999
-2.2650001 1.675 -0.29499999
-2.2650001 1.665 -0.285
-2.2550001 1.675 -0.29499999
-2.2550001 1.665 -0.285
-2.2449999 1.675 -0.285
-2.2850001 1.615 -0.27500001
-2.2950001 1.605 -0.26499999
-2.2850001 1.605 -0.26499999
-2.2850001 1.615 -0.26499999
-2.2850001 1.635 -0.27500001
-2.2850001 1.605 -0.255
-2.2750001 1.615 -0.26499999
-2.2750001 1.625 -0.27500001
-2.2750001 1.635 -0.27500001
-2.2650001 1.635 -0.27500001
-2.2750001 1.625 -0.26499999
-2.2650001 1.635 -0.26499999
-2.2750001 1.605 -0.255
-2.2750001 1.615 -0.255
-2.2750001 1.605 -0.245
-2.2650001 1.605 -0.245
-2.2650001 1.615 -0.245
-2.2650001 1.625 -0.255
-2.2750001 1.645 -0.27500001
-2.2650001 1.645 -0.27500001
-2.2750001 1.655 -0.27500001
-2.2650001 1.645 -0.26499999
-2.2650001 1.655 -0.26499999
-2.2550001 1.655 -0.26499999
-2.2650001 1.675 -0.27500001
-2.2550001 1.665 -0.27500001
-2.2650001 1.655 -0.245
-2.2650001 1.675 -0.245
-2.2550001 1.6950001 -0.30500001
-2.2449999 1.6950001 -0.30500001
-2.2650001 1.705 -0.315
-2.2650001 1.705 -0.30500001
-2.2550001 1.715 -0.315
-2.2449999 1.715 -0.315
-2.2449999 1.705 -0.30500001
-2.2550001 1.715 -0.30500001
-2.2650001 1.6849999 -0.29499999
-2.2650001 1.6950001 -0.29499999
-2.2550001 1.6849999 -0.29499999
-2.2449999 1.6950001 -0.29499999
-2.2550001 1.6849999 -0.285
-2.2550001 1.6950001 -0.285
-2.2449999 1.6950001 -0.285
-2.2449999 1.705 -0.29499999
-2.2550001 1.725 -0.315
-2.2449999 1.725 -0.30500001
-2.2550001 1.705 -0.26499999
-2.2550001 1.715 -0.26499999
-2.2650001 1.6950001 -0.245
-2.2550001 1.6849999 -0.255
-2.2449999 1.6950001 -0.255
-2.2449999 1.6849999 -0.245
-2.2550001 1.6950001 -0.245
-2.2449999 1.705 -0.255
-2.2550001 1.715 -0.255
-2.2449999 1.715 -0.255
-2.2449999 1.735 -0.26499999
-2.2850001 1.605 -0.215
-2.2850001 1.605 -0.205
-2.2850001 1.615 -0.205
-2.2750001 1.625 -0.22499999
-2.2750001 1.635 -0.22499999
-2.2750001 1.615 -0.215
-2.2750001 1.605 -0.205
-2.2750001 1.615 -0.205
-2.2650001 1.615 -0.205
-2.2650001 1.625 -0.215
-2.2750001 1.635 -0.215
-2.2650001 1.645 -0.235
-2.2650001 1.645 -0.22499999
-2.2750001 1.655 -0.22499999
-2.2650001 1.655 -0.22499999
-2.2550001 1.655 -0.235
-2.2550001 1.655 -0.22499999
-2.2650001 1.665 -0.235
-2.2650001 1.675 -0.235
-2.2750001 1.665 -0.22499999
-2.2550001 1.675 -0.235
-2.2650001 1.645 -0.215
-2.2750001 1.665 -0.205
-2.2550001 1.675 -0.205
-2.2850001 1.605 -0.19499999
-2.2850001 1.605 -0.175
-2.2850001 1.605 -0.16500001
-2.2850001 1.625 -0.175
-2.2750001 1.625 -0.185
-2.2750001 1.635 -0.185
-2.2750001 1.635 -0.16500001
-2.2750001 1.655 -0.19499999
-2.2650001 1.655 -0.19499999
-2.2650001 1.645 -0.185
-2.2650001 1.675 -0.185
-2.2550001 1.665 -0.19499999
-2.2650001 1.645 -0.175
-2.2650001 1.655 -0.175
-2.2750001 1.645 -0.16500001
-2.2650001 1.645 -0.16500001
-2.2650001 1.655 -0.16500001
-2.2550001 1.645 -0.16500001
-2.2750001 1.665 -0.175
-2.2650001 1.675 -0.175
-2.2550001 1.665 -0.175
-2.2550001 1.675 -0.175
-2.2449999 1.675 -0.175
-2.2550001 1.665 -0.16500001
-2.2650001 1.6849999 -0.235
-2.2550001 1.705 -0.22499999
-2.2550001 1.6849999 -0.215
-2.2550001 1.6950001 -0.215
-2.2550001 1.6849999 -0.205
-2.2449999 1.705 -0.215
-2.2449999 1.715 -0.205
-2.2650001 1.6849999 -0.185
-2.2650001 1.6950001 -0.185
-2.2550001 1.6849999 -0.19499999
-2.2550001 1.6849999 -0.185
-2.2449999 1.6849999 -0.185
-2.2550001 1.6950001 -0.185
-2.2550001 1.705 -0.19499999
-2.2449999 1.705 -0.19499999
-2.2550001 1.715 -0.19499999
-2.2449999 1.715 -0.19499999
-2.2449999 1.715 -0.175
-2.2550001 1.705 -0.16500001
-2.2550001 1.715 -0.16500001
-2.2850001 1.605 -0.145
-2.2850001 1.625 -0.155
-2.2850001 1.635 -0.125
-2.2750001 1.615 -0.155
-2.2650001 1.615 -0.155
-2.2750001 1.605 -0.145
-2.2750001 1.615 -0.145
-2.2750001 1.625 -0.155
-2.2750001 1.635 -0.155
-2.2650001 1.635 -0.155
-2.2650001 1.625 -0.145
-2.2750001 1.635 -0.13500001
-2.2750001 1.625 -0.125
-2.2750001 1.635 -0.125
-2.2650001 1.675 -0.155
-2.2650001 1.665 -0.145
-2.2650001 1.675 -0.145
-2.2750001 1.645 -0.13500001
-2.2650001 1.645 -0.13500001
-2.2750001 1.645 -0.125
-2.2650001 1.645 -0.125
-2.2750001 1.655 -0.125
-2.2750001 1.665 -0.13500001
-2.2650001 1.665 -0.13500001
-2.2650001 1.675 -0.13500001
-2.2750001 1.665 -0.125
-2.2650001 1.665 -0.125
-2.2550001 1.675 -0.13500001
-2.2550001 1.665 -0.125
-2.2550001 1.675 -0.125
-2.2850001 1.605 -0.115
-2.2950001 1.615 -0.115
-2.2850001 1.605 -0.105
-2.2850001 1.615 -0.105
-2.2850001 1.625 -0.115
-2.2850001 1.625 -0.105
-2.2850001 1.605 -0.085000001
-2.2950001 1.615 -0.085000001
-2.2850001 1.615 -0.085000001
-2.2850001 1.625 -0.085000001
-2.2750001 1.605 -0.115
-2.2750001 1.615 -0.115
-2.2750001 1.605 -0.105
-2.2750001 1.625 -0.115
-2.2650001 1.625 -0.115
-2.2750001 1.635 -0.115
-2.2650001 1.635 -0.115
-2.2750001 1.625 -0.105
-2.2650001 1.635 -0.105
-2.2750001 1.605 -0.094999999
-2.2750001 1.625 -0.094999999
-2.2750001 1.635 -0.094999999
-2.2750001 1.635 -0.085000001
-2.2650001 1.635 -0.085000001
-2.2850001 1.655 -0.115
-2.2650001 1.655 -0.115
-2.2750001 1.645 -0.105
-2.2650001 1.645 -0.105
-2.2650001 1.655 -0.105
-2.2750001 1.675 -0.115
-2.2650001 1.675 -0.115
-2.2650001 1.675 -0.105
-2.2550001 1.675 -0.105
-2.2650001 1.655 -0.094999999
-2.2650001 1.645 -0.085000001
-2.2650001 1.655 -0.085000001
-2.2550001 1.655 -0.094999999
-2.2550001 1.675 -0.094999999
-2.2550001 1.665 -0.085000001
-2.2650001 1.6950001 -0.155
-2.2750001 1.6849999 -0.145
-2.2650001 1.6849999 -0.145
-2.2650001 1.6950001 -0.145
-2.2550001 1.6950001 -0.155
-2.2550001 1.6849999 -0.145
-2.2449999 1.6849999 -0.145
-2.2550001 1.6950001 -0.145
-2.2550001 1.705 -0.155
-2.2449999 1.705 -0.155
-2.2550001 1.715 -0.155
-2.2449999 1.715 -0.155
-2.2550001 1.705 -0.145
-2.2449999 1.715 -0.145
-2.2650001 1.6849999 -0.13500001
-2.2650001 1.6849999 -0.125
-2.2550001 1.6950001 -0.13500001
-2.2550001 1.6950001 -0.125
-2.2449999 1.6950001 -0.125
-2.2550001 1.705 -0.13500001
-2.2550001 1.715 -0.13500001
-2.2550001 1.6950001 -0.115
-2.2550001 1.6849999 -0.105
-2.2550001 1.6950001 -0.105
-2.2550001 1.705 -0.115
-2.2449999 1.705 -0.115
-2.2449999 1.715 -0.115
-2.2550001 1.6849999 -0.094999999
-2.2550001 1.6849999 -0.085000001
-2.2550001 1.6950001 -0.085000001
-2.2650001 1.715 -0.085000001
-2.2449999 1.705 -0.094999999
-2.2449999 1.715 -0.094999999
-2.2850001 1.615 -0.075000003
-2.2850001 1.605 -0.064999998
-2.2850001 1.615 -0.064999998
-2.2850001 1.605 -0.055
-2.2850001 1.615 -0.045000002
-2.2750001 1.615 -0.075000003
-2.2750001 1.605 -0.064999998
-2.2750001 1.625 -0.075000003
-2.2650001 1.625 -0.064999998
-2.2650001 1.635 -0.064999998
-2.2650001 1.615 -0.055
-2.2750001 1.605 -0.045000002
-2.2650001 1.635 -0.055
-2.2750001 1.625 -0.045000002
-2.2750001 1.645 -0.075000003
-2.2650001 1.645 -0.064999998
-2.2650001 1.665 -0.075000003
-2.2650001 1.675 -0.075000003
-2.2750001 1.665 -0.064999998
-2.2550001 1.675 -0.075000003
-2.2650001 1.675 -0.045000002
-2.2950001 1.605 -0.035
-2.2850001 1.605 -0.0049999999
-2.2850001 1.615 -0.0049999999
-2.2850001 1.635 -0.015
-2.2950001 1.625 -0.0049999999
-2.2750001 1.635 -0.025
-2.2650001 1.635 -0.025
-2.2550001 1.635 -0.025
-2.2750001 1.605 -0.015
-2.2750001 1.615 -0.015
-2.2750001 1.605 -0.0049999999
-2.2750001 1.615 -0.0049999999
-2.2750001 1.625 -0.015
-2.2750001 1.635 -0.015
-2.2750001 1.625 -0.0049999999
-2.2750001 1.635 -0.0049999999
-2.2850001 1.645 -0.025
-2.2850001 1.655 -0.025
-2.2650001 1.645 -0.035
-2.2650001 1.655 -0.035
-2.2650001 1.645 -0.025
-2.2750001 1.655 -0.025
-2.2650001 1.665 -0.035
-2.2750001 1.675 -0.035
-2.2750001 1.665 -0.025
-2.2650001 1.665 -0.025
-2.2550001 1.665 -0.035
-2.2550001 1.675 -0.035
-2.2550001 1.675 -0.025
-2.2750001 1.645 -0.015
-2.2650001 1.645 -0.015
-2.2650001 1.655 -0.0049999999
-2.2550001 1.655 -0.015
-2.2650001 1.6950001 -0.045000002
-2.2550001 1.6950001 -0.055
-2.2449999 1.6950001 -0.055
-2.2550001 1.6849999 -0.045000002
-2.2650001 1.705 -0.045000002
-2.2550001 1.705 -0.055
-2.2449999 1.705 -0.055
-2.2449999 1.715 -0.055
-2.2550001 1.705 -0.045000002
-2.2449999 1.705 -0.045000002
-2.2449999 1.725 -0.064999998
-2.2449999 1.725 -0.055
-2.2750001 1.6849999 -0.035
-2.2650001 1.6849999 -0.035
-2.2750001 1.6950001 -0.035
-2.2550001 1.6849999 -0.035
-2.2449999 1.6950001 -0.035
-2.2550001 1.6849999 -0.025
-2.2449999 1.715 -0.035
-2.2449999 1.6849999 -0.0049999999
-2.2550001 1.6950001 -0.0049999999
-2.2449999 1.6950001 -0.0049999999
-2.2449999 1.705 -0.015
-2.2449999 1.715 -0.015
-2.2550001 1.715 -0.0049999999
-2.2449999 1.715 -0.0049999999
-2.2449999 1.735 -0.025
-2.2449999 1.735 -0.0049999999
-2.2349999 1.705 -0.29499999
-2.2349999 1.6950001 -0.245
-2.2349999 1.705 -0.22499999
-2.2349999 1.735 -0.205
-2.2249999 1.745 -0.205
-2.2349999 1.6950001 -0.185
-2.2349999 1.715 -0.19499999
-2.2349999 1.725 -0.16500001
-2.2349999 1.725 -0.155
-2.2349999 1.725 -0.105
-2.2349999 1.715 -0.015
-2.2249999 1.725 -0.025
-0.085000001 1.285 -0.51499999
-0.094999999 1.295 -0.51499999
-0.085000001 1.295 -0.51499999
-0.085000001 1.285 -0.505
-0.085000001 1.295 -0.505
-0.094999999 1.3049999 -0.51499999
-0.094999999 1.3150001 -0.51499999
-0.085000001 1.3150001 -0.51499999
-0.094999999 1.3049999 -0.505
-0.085000001 1.3049999 -0.505
-0.085000001 1.285 -0.495
-0.085000001 1.325 -0.51499999
-0.085000001 1.335 -0.505
-0.105 1.355 -0.505
-0.085000001 1.345 -0.51499999
-0.085000001 1.355 -0.505
-0.094999999 1.335 -0.495
-0.075000003 1.285 -0.51499999
-0.064999998 1.285 -0.51499999
-0.075000003 1.285 -0.505
-0.064999998 1.285 -0.505
-0.075000003 1.295 -0.505
-0.064999998 1.295 -0.505
-0.055 1.285 -0.505
