# .PCD v0.7 - Point Cloud Data file format
VERSION 0.7
FIELDS x y z
SIZE 4 4 4
TYPE F F F
COUNT 1 1 1
WIDTH 1383
HEIGHT 1
VIEWPOINT 0 0 0 0 1 0 0
POINTS 1383
DATA ascii
-0.073104762 0.0038476193 1.01
-0.070758097 0.0038247621 1.0040001
-0.068845719 0.0038247621 1.0040001
-0.066733338 0.0038133336 1.001
-0.064632386 0.0038019049 0.99800003
-0.06273143 0.0038019049 0.99800003
-0.060464766 0.0037790479 0.99200004
-0.058575239 0.0037790479 0.99200004
-0.056514289 0.0037676191 0.98900002
-0.054520003 0.0037600002 0.98700005
-0.052480001 0.0037485715 0.98400003
-0.050451431 0.003737143 0.98100007
-0.048434287 0.0037257145 0.97800004
-0.046428572 0.0037142858 0.97500002
-0.044480003 0.0037066669 0.97300005
-0.04249524 0.0036952381 0.97000003
-0.040521905 0.0036838097 0.96700007
-0.038680002 0.0036838097 0.96700007
-0.036647622 0.003664762 0.96200007
0.010491429 0.003497143 0.91800004
0.01224 0.003497143 0.91800004
0.019380953 0.0035238096 0.92500007
0.021142857 0.0035238096 0.92500007
0.022979049 0.0035352383 0.92800003
0.024746668 0.0035352383 0.92800003
0.026514286 0.0035352383 0.92800003
0.028281907 0.0035352383 0.92800003
0.030049525 0.0035352383 0.92800003
0.031885717 0.0035428572 0.93000007
-0.090335242 0.0058914288 1.031
-0.088371433 0.0058914288 1.031
-0.086407624 0.0058914288 1.031
-0.084443815 0.0058914288 1.031
-0.08224 0.0058742859 1.028
-0.080047622 0.0058571431 1.0250001
-0.077638097 0.0058228574 1.0190001
-0.07525143 0.0057885717 1.013
-0.073104762 0.0057714288 1.01
-0.070758097 0.0057371431 1.0040001
-0.068640001 0.0057200002 1.001
-0.066733338 0.0057200002 1.001
-0.064632386 0.0057028574 0.99800003
-0.06273143 0.0057028574 0.99800003
-0.060464766 0.0056685717 0.99200004
-0.058575239 0.0056685717 0.99200004
-0.056514289 0.0056514288 0.98900002
-0.054520003 0.0056400001 0.98700005
-0.052480001 0.0056228573 0.98400003
-0.050451431 0.0056057144 0.98100007
-0.048434287 0.0055885715 0.97800004
-0.04657143 0.0055885715 0.97800004
-0.044571429 0.0055714287 0.97500002
-0.04249524 0.0055428576 0.97000003
-0.040647622 0.0055428576 0.97000003
-0.038680002 0.0055257147 0.96700007
0.0069714286 0.0052285716 0.91500002
0.0087142857 0.0052285716 0.91500002
0.010491429 0.0052457144 0.91800004
0.01224 0.0052457144 0.91800004
0.019380953 0.0052857143 0.92500007
0.021142857 0.0052857143 0.92500007
0.022979049 0.0053028571 0.92800003
0.024746668 0.0053028571 0.92800003
0.026514286 0.0053028571 0.92800003
0.028281907 0.0053028571 0.92800003
0.030049525 0.0053028571 0.92800003
-0.090948574 0.0079085715 1.0380001
-0.088628575 0.0078780958 1.034
-0.086407624 0.0078552384 1.031
-0.084443815 0.0078552384 1.031
-0.08224 0.0078323809 1.028
-0.080047622 0.007809524 1.0250001
-0.077866666 0.007786667 1.0220001
-0.075474292 0.0077409525 1.016
-0.073104762 0.0076952386 1.01
-0.070758097 0.0076495241 1.0040001
-0.068640001 0.0076266672 1.001
-0.066733338 0.0076266672 1.001
-0.064632386 0.0076038097 0.99800003
-0.062542856 0.0075809527 0.99500006
-0.060464766 0.0075580957 0.99200004
-0.058575239 0.0075580957 0.99200004
-0.056514289 0.0075352383 0.98900002
-0.054630477 0.0075352383 0.98900002
-0.052640002 0.0075200005 0.98700005
-0.050605714 0.007497143 0.98400003
-0.048582859 0.007474286 0.98100007
-0.04657143 0.007451429 0.97800004
-0.044571429 0.0074285716 0.97500002
-0.042626668 0.0074133337 0.97300005
-0.040647622 0.0073904763 0.97000003
-0.038680002 0.0073676193 0.96700007
-0.036723811 0.0073447623 0.96400005
0.0052285716 0.0069714286 0.91500002
0.0069714286 0.0069714286 0.91500002
0.0087142857 0.0069714286 0.91500002
0.010491429 0.0069942861 0.91800004
0.01224 0.0069942861 0.91800004
0.019380953 0.0070476192 0.92500007
0.021142857 0.0070476192 0.92500007
0.022979049 0.0070704767 0.92800003
0.024746668 0.0070704767 0.92800003
0.026514286 0.0070704767 0.92800003
0.028281907 0.0070704767 0.92800003
0.041312382 0.007184762 0.94300002
-0.090948574 0.0098857144 1.0380001
-0.088971429 0.0098857144 1.0380001
-0.086659051 0.0098476196 1.034
-0.084689528 0.0098476196 1.034
-0.08224 0.0097904764 1.028
-0.080281906 0.0097904764 1.028
-0.077866666 0.0097333333 1.0220001
-0.075474292 0.009676191 1.016
-0.073321909 0.009647619 1.013
-0.070758097 0.0095619047 1.0040001
-0.068640001 0.0095333336 1.001
-0.066733338 0.0095333336 1.001
-0.064632386 0.0095047625 0.99800003
-0.062542856 0.0094761904 0.99500006
-0.060464766 0.0094476193 0.99200004
-0.058575239 0.0094476193 0.99200004
-0.056514289 0.0094190482 0.98900002
-0.054630477 0.0094190482 0.98900002
-0.052640002 0.0094000008 0.98700005
-0.050605714 0.0093714288 0.98400003
-0.048582859 0.0093428576 0.98100007
-0.04657143 0.0093142865 0.97800004
-0.044708572 0.0093142865 0.97800004
-0.042714287 0.0092857145 0.97500002
-0.040773336 0.0092666671 0.97300005
-0.038800001 0.009238096 0.97000003
-0.036723811 0.0091809528 0.96400005
-0.034815241 0.0091619054 0.96200007
-0.032880001 0.0091333333 0.95900005
0.0052285716 0.0087142857 0.91500002
0.0069714286 0.0087142857 0.91500002
0.0087142857 0.0087142857 0.91500002
0.010491429 0.0087428577 0.91800004
0.021142857 0.0088095246 0.92500007
0.022979049 0.0088380957 0.92800003
0.024746668 0.0088380957 0.92800003
0.041312382 0.0089809531 0.94300002
-0.090948574 0.011862857 1.0380001
-0.088971429 0.011862857 1.0380001
-0.086659051 0.011817143 1.034
-0.084689528 0.011817143 1.034
-0.082480006 0.011782858 1.031
-0.080047622 0.011714286 1.0250001
-0.078095242 0.011714286 1.0250001
-0.075474292 0.011611429 1.016
-0.073321909 0.011577143 1.013
-0.070969529 0.011508572 1.0070001
-0.068845719 0.011474286 1.0040001
-0.066733338 0.01144 1.001
-0.064632386 0.011405715 0.99800003
-0.06273143 0.011405715 0.99800003
-0.060464766 0.011337143 0.99200004
-0.058575239 0.011337143 0.99200004
-0.056514289 0.011302858 0.98900002
-0.054520003 0.01128 0.98700005
-0.052640002 0.01128 0.98700005
-0.050605714 0.011245715 0.98400003
-0.048582859 0.011211429 0.98100007
-0.046714287 0.011211429 0.98100007
-0.044708572 0.011177143 0.97800004
-0.042714287 0.011142857 0.97500002
-0.040773336 0.011120001 0.97300005
-0.038680002 0.011051429 0.96700007
-0.036723811 0.011017144 0.96400005
-0.034815241 0.010994286 0.96200007
-0.032880001 0.010960001 0.95900005
0.0052285716 0.010457143 0.91500002
0.0069714286 0.010457143 0.91500002
0.0087142857 0.010457143 0.91500002
0.010491429 0.010491429 0.91800004
0.039306667 0.010720001 0.93800002
0.041312382 0.010777143 0.94300002
-0.09292572 0.01384 1.0380001
-0.090948574 0.01384 1.0380001
-0.088971429 0.01384 1.0380001
-0.08699429 0.01384 1.0380001
-0.084689528 0.013786667 1.034
-0.082480006 0.013746667 1.031
-0.080047622 0.013666667 1.0250001
-0.078095242 0.013666667 1.0250001
-0.075697146 0.013586667 1.0190001
-0.073539048 0.013546667 1.016
-0.071180955 0.013466667 1.01
-0.068845719 0.013386667 1.0040001
-0.066733338 0.013346667 1.001
-0.064632386 0.013306667 0.99800003
-0.06273143 0.013306667 0.99800003
-0.060464766 0.013226667 0.99200004
-0.058575239 0.013226667 0.99200004
-0.056514289 0.013186667 0.98900002
-0.054520003 0.013160001 0.98700005
-0.052480001 0.01312 0.98400003
-0.050451431 0.013080001 0.98100007
-0.048582859 0.013080001 0.98100007
-0.046714287 0.013080001 0.98100007
-0.044708572 0.013040001 0.97800004
-0.042845715 0.013040001 0.97800004
-0.040773336 0.012973334 0.97300005
-0.038680002 0.012893334 0.96700007
-0.036647622 0.012826667 0.96200007
-0.034815241 0.012826667 0.96200007
-0.032880001 0.012786667 0.95900005
-0.030956192 0.012746667 0.95600003
0.0052285716 0.012200001 0.91500002
0.0069714286 0.012200001 0.91500002
0.0087142857 0.012200001 0.91500002
0.037520003 0.012506668 0.93800002
0.039306667 0.012506668 0.93800002
-0.08699429 0.015817143 1.0380001
-0.084689528 0.015756192 1.034
-0.082720004 0.015756192 1.034
-0.080281906 0.015664762 1.028
-0.078095242 0.015619048 1.0250001
-0.075697146 0.01552762 1.0190001
-0.073539048 0.015481905 1.016
-0.071180955 0.015390477 1.01
-0.068845719 0.015299048 1.0040001
-0.066733338 0.015253334 1.001
-0.064632386 0.015207619 0.99800003
-0.06273143 0.015207619 0.99800003
-0.060464766 0.015116191 0.99200004
-0.058575239 0.015116191 0.99200004
-0.056514289 0.015070477 0.98900002
-0.054520003 0.015040001 0.98700005
-0.052480001 0.014994286 0.98400003
-0.050451431 0.014948572 0.98100007
-0.048582859 0.014948572 0.98100007
-0.046714287 0.014948572 0.98100007
-0.044845715 0.014948572 0.98100007
-0.042845715 0.014902858 0.97800004
-0.040857144 0.014857143 0.97500002
-0.038560003 0.014689525 0.96400005
-0.036647622 0.014659048 0.96200007
-0.034706667 0.014613334 0.95900005
-0.032880001 0.014613334 0.95900005
-0.030956192 0.014567619 0.95600003
-0.029135238 0.014567619 0.95600003
0.0069714286 0.013942857 0.91500002
0.0087142857 0.013942857 0.91500002
0.037520003 0.014293334 0.93800002
0.039306667 0.014293334 0.93800002
-0.08699429 0.017794287 1.0380001
-0.084689528 0.017725715 1.034
-0.082720004 0.017725715 1.034
-0.080281906 0.017622858 1.028
-0.078095242 0.017571429 1.0250001
-0.075920001 0.017520001 1.0220001
-0.073539048 0.017417144 1.016
-0.071392387 0.017365715 1.013
-0.06905143 0.017262857 1.0070001
-0.066733338 0.01716 1.001
-0.064632386 0.017108573 0.99800003
-0.06273143 0.017108573 0.99800003
-0.060464766 0.017005716 0.99200004
-0.058575239 0.017005716 0.99200004
-0.056514289 0.016954286 0.98900002
-0.054630477 0.016954286 0.98900002
-0.052640002 0.01692 0.98700005
-0.050605714 0.016868573 0.98400003
-0.048582859 0.016817143 0.98100007
-0.046714287 0.016817143 0.98100007
-0.044845715 0.016817143 0.98100007
-0.042845715 0.016765716 0.97800004
-0.040857144 0.016714286 0.97500002
-0.038560003 0.016525716 0.96400005
-0.036647622 0.01649143 0.96200007
-0.034706667 0.01644 0.95900005
-0.032880001 0.01644 0.95900005
-0.030956192 0.016388573 0.95600003
-0.029135238 0.016388573 0.95600003
0.039390478 0.016114287 0.94000006
0.041093335 0.016080001 0.93800002
0.042880002 0.016080001 0.93800002
-0.08699429 0.019771429 1.0380001
-0.085017145 0.019771429 1.0380001
-0.082720004 0.019695239 1.034
-0.080281906 0.019580953 1.028
-0.078095242 0.019523811 1.0250001
-0.075920001 0.019466667 1.0220001
-0.073756196 0.019409524 1.0190001
-0.071603812 0.019352382 1.016
-0.069462858 0.019295238 1.013
-0.066933334 0.019123809 1.0040001
-0.064826667 0.019066667 1.001
-0.062920004 0.019066667 1.001
-0.060464766 0.018895239 0.99200004
-0.058575239 0.018895239 0.99200004
-0.056514289 0.018838096 0.98900002
-0.054630477 0.018838096 0.98900002
-0.052640002 0.018800002 0.98700005
-0.050605714 0.018742858 0.98400003
-0.048731431 0.018742858 0.98400003
-0.046714287 0.018685715 0.98100007
-0.044845715 0.018685715 0.98100007
-0.042845715 0.018628573 0.97800004
-0.040773336 0.018533334 0.97300005
-0.038560003 0.018361906 0.96400005
-0.036647622 0.018323811 0.96200007
-0.034706667 0.018266667 0.95900005
-0.032880001 0.018266667 0.95900005
-0.030956192 0.018209524 0.95600003
-0.029135238 0.018209524 0.95600003
-0.027257144 0.01817143 0.95400006
0.032057144 0.017809525 0.93500006
0.033946667 0.017866667 0.93800002
0.035733335 0.017866667 0.93800002
0.041093335 0.017866667 0.93800002
0.042880002 0.017866667 0.93800002
-0.085017145 0.021748573 1.0380001
-0.082720004 0.021664763 1.034
-0.080281906 0.021539049 1.028
-0.078095242 0.021476191 1.0250001
-0.075920001 0.021413334 1.0220001
-0.073756196 0.021350477 1.0190001
-0.071603812 0.02128762 1.016
-0.069462858 0.021224763 1.013
-0.067333333 0.021161906 1.01
-0.065020956 0.021036191 1.0040001
-0.063108571 0.021036191 1.0040001
-0.060464766 0.020784762 0.99200004
-0.058575239 0.020784762 0.99200004
-0.056514289 0.020721905 0.98900002
-0.054630477 0.020721905 0.98900002
-0.052640002 0.020680001 0.98700005
-0.050605714 0.020617144 0.98400003
-0.048731431 0.020617144 0.98400003
-0.046714287 0.020554287 0.98100007
-0.044708572 0.020491429 0.97800004
-0.042845715 0.020491429 0.97800004
-0.040773336 0.020386668 0.97300005
-0.038560003 0.020198096 0.96400005
-0.036647622 0.020156192 0.96200007
-0.034706667 0.020093335 0.95900005
-0.032880001 0.020093335 0.95900005
-0.030956192 0.020030476 0.95600003
-0.029135238 0.020030476 0.95600003
-0.027314287 0.020030476 0.95600003
0.030276192 0.019590477 0.93500006
0.032160003 0.019653333 0.93800002
0.033946667 0.019653333 0.93800002
0.035733335 0.019653333 0.93800002
0.037520003 0.019653333 0.93800002
-0.08699429 0.023725715 1.0380001
-0.085017145 0.023725715 1.0380001
-0.082720004 0.023634287 1.034
-0.080281906 0.023497144 1.028
-0.078095242 0.023428572 1.0250001
-0.075920001 0.023360001 1.0220001
-0.073973335 0.023360001 1.0220001
-0.071603812 0.023222858 1.016
-0.069462858 0.023154287 1.013
-0.067333333 0.023085715 1.01
-0.065215237 0.023017144 1.0070001
-0.063108571 0.022948572 1.0040001
-0.061013337 0.022880001 1.001
-0.058752384 0.022742858 0.99500006
-0.056685716 0.022674287 0.99200004
-0.054630477 0.022605715 0.98900002
-0.052640002 0.02256 0.98700005
-0.050760001 0.02256 0.98700005
-0.048731431 0.022491429 0.98400003
-0.046714287 0.022422858 0.98100007
-0.044708572 0.022354286 0.97800004
-0.042714287 0.022285715 0.97500002
-0.040773336 0.022240002 0.97300005
-0.038560003 0.022034287 0.96400005
-0.036647622 0.021988573 0.96200007
-0.034706667 0.021920001 0.95900005
-0.032880001 0.021920001 0.95900005
-0.030956192 0.02185143 0.95600003
-0.029135238 0.02185143 0.95600003
-0.027314287 0.02185143 0.95600003
0.028495239 0.02137143 0.93500006
0.030276192 0.02137143 0.93500006
0.032160003 0.021440001 0.93800002
0.033946667 0.021440001 0.93800002
0.035733335 0.021440001 0.93800002
0.037520003 0.021440001 0.93800002
-0.08699429 0.025702858 1.0380001
-0.085017145 0.025702858 1.0380001
-0.082720004 0.02560381 1.034
-0.080281906 0.025455238 1.028
-0.078095242 0.025380954 1.0250001
-0.076142862 0.025380954 1.0250001
-0.073973335 0.025306668 1.0220001
-0.071603812 0.025158096 1.016
-0.069462858 0.02508381 1.013
-0.067333333 0.025009524 1.01
-0.065215237 0.02493524 1.0070001
-0.063108571 0.024860954 1.0040001
-0.061196193 0.024860954 1.0040001
-0.058929525 0.024712382 0.99800003
-0.056685716 0.02456381 0.99200004
-0.054630477 0.024489524 0.98900002
-0.052746668 0.024489524 0.98900002
-0.050760001 0.024440002 0.98700005
-0.048731431 0.024365716 0.98400003
-0.046714287 0.02429143 0.98100007
-0.044845715 0.02429143 0.98100007
-0.042714287 0.024142858 0.97500002
-0.040773336 0.024093334 0.97300005
-0.038560003 0.023870477 0.96400005
-0.036647622 0.023820953 0.96200007
-0.034706667 0.023746667 0.95900005
-0.032880001 0.023746667 0.95900005
-0.031053334 0.023746667 0.95900005
-0.029135238 0.023672381 0.95600003
-0.027314287 0.023672381 0.95600003
0.030276192 0.023152381 0.93500006
0.032160003 0.023226667 0.93800002
0.033946667 0.023226667 0.93800002
0.035733335 0.023226667 0.93800002
0.037520003 0.023226667 0.93800002
-0.08699429 0.02768 1.0380001
-0.085017145 0.02768 1.0380001
-0.082720004 0.027573334 1.034
-0.080281906 0.027413335 1.028
-0.078323811 0.027413335 1.028
-0.076142862 0.027333334 1.0250001
-0.073973335 0.027253333 1.0220001
-0.071815237 0.027173335 1.0190001
-0.069462858 0.027013334 1.013
-0.067333333 0.026933335 1.01
-0.065215237 0.026853334 1.0070001
-0.063108571 0.026773334 1.0040001
-0.061196193 0.026773334 1.0040001
-0.058929525 0.026613334 0.99800003
-0.056685716 0.026453335 0.99200004
-0.054630477 0.026373334 0.98900002
-0.052746668 0.026373334 0.98900002
-0.050760001 0.026320001 0.98700005
-0.048880003 0.026320001 0.98700005
-0.046714287 0.026160002 0.98100007
-0.044708572 0.026080001 0.97800004
-0.042714287 0.026000001 0.97500002
-0.040773336 0.025946667 0.97300005
-0.038680002 0.025786668 0.96700007
-0.036647622 0.025653334 0.96200007
-0.034706667 0.025573334 0.95900005
-0.032880001 0.025573334 0.95900005
-0.031053334 0.025573334 0.95900005
-0.029135238 0.025493335 0.95600003
-0.027314287 0.025493335 0.95600003
-0.025493335 0.025493335 0.95600003
0.028434286 0.024880001 0.93300003
0.030276192 0.024933334 0.93500006
0.032057144 0.024933334 0.93500006
0.033946667 0.025013335 0.93800002
0.035733335 0.025013335 0.93800002
0.037520003 0.025013335 0.93800002
0.039306667 0.025013335 0.93800002
-0.085017145 0.029657144 1.0380001
-0.082720004 0.029542858 1.034
-0.08075048 0.029542858 1.034
-0.078323811 0.029371429 1.028
-0.076142862 0.029285716 1.0250001
-0.073973335 0.029200001 1.0220001
-0.071815237 0.029114287 1.0190001
-0.069462858 0.028942859 1.013
-0.067333333 0.028857144 1.01
-0.065215237 0.02877143 1.0070001
-0.063108571 0.028685715 1.0040001
-0.061196193 0.028685715 1.0040001
-0.058929525 0.028514287 0.99800003
-0.056685716 0.028342858 0.99200004
-0.054796193 0.028342858 0.99200004
-0.052746668 0.028257145 0.98900002
-0.050760001 0.028200001 0.98700005
-0.048880003 0.028200001 0.98700005
-0.046714287 0.028028572 0.98100007
-0.044708572 0.027942859 0.97800004
-0.042714287 0.027857143 0.97500002
-0.040773336 0.027800001 0.97300005
-0.038680002 0.027628573 0.96700007
-0.036647622 0.027485715 0.96200007
-0.034706667 0.027400002 0.95900005
-0.032880001 0.027400002 0.95900005
-0.031053334 0.027400002 0.95900005
-0.029135238 0.027314287 0.95600003
-0.027314287 0.027314287 0.95600003
-0.025493335 0.027314287 0.95600003
0.030276192 0.026714286 0.93500006
0.032057144 0.026714286 0.93500006
0.033946667 0.026800001 0.93800002
0.035733335 0.026800001 0.93800002
0.037520003 0.026800001 0.93800002
-0.085017145 0.031634286 1.0380001
-0.082720004 0.031512383 1.034
-0.080516197 0.031420954 1.031
-0.078323811 0.031329524 1.028
-0.076142862 0.031238096 1.0250001
-0.073973335 0.031146668 1.0220001
-0.071815237 0.03105524 1.0190001
-0.069462858 0.030872382 1.013
-0.067533337 0.030872382 1.013
-0.065409526 0.030780954 1.01
-0.063297145 0.030689524 1.0070001
-0.061196193 0.030598097 1.0040001
-0.058929525 0.030415239 0.99800003
-0.056685716 0.030232383 0.99200004
-0.054796193 0.030232383 0.99200004
-0.052746668 0.030140953 0.98900002
-0.050760001 0.030080002 0.98700005
-0.048880003 0.030080002 0.98700005
-0.046714287 0.029897144 0.98100007
-0.044708572 0.029805716 0.97800004
-0.042845715 0.029805716 0.97800004
-0.040773336 0.029653335 0.97300005
-0.038680002 0.029470477 0.96700007
-0.036723811 0.029379049 0.96400005
-0.034815241 0.029318096 0.96200007
-0.032880001 0.029226668 0.95900005
-0.031053334 0.029226668 0.95900005
-0.029226668 0.029226668 0.95900005
-0.027314287 0.029135238 0.95600003
-0.025493335 0.029135238 0.95600003
0.030276192 0.028495239 0.93500006
0.032160003 0.028586667 0.93800002
0.033946667 0.028586667 0.93800002
-0.082720004 0.033481907 1.034
-0.080516197 0.033384763 1.031
-0.078323811 0.033287622 1.028
-0.076142862 0.033190478 1.0250001
-0.073973335 0.033093333 1.0220001
-0.071815237 0.032996193 1.0190001
-0.069668576 0.032899048 1.016
-0.067533337 0.032801908 1.013
-0.065409526 0.032704763 1.01
-0.063297145 0.032607619 1.0070001
-0.061196193 0.032510478 1.0040001
-0.05910667 0.032413334 1.001
-0.056685716 0.032121904 0.99200004
-0.054796193 0.032121904 0.99200004
-0.052746668 0.032024764 0.98900002
-0.050760001 0.031959999 0.98700005
-0.048880003 0.031959999 0.98700005
-0.046714287 0.031765714 0.98100007
-0.044708572 0.031668574 0.97800004
-0.042845715 0.031668574 0.97800004
-0.040773336 0.031506669 0.97300005
-0.038800001 0.031409524 0.97000003
-0.036838096 0.031312384 0.96700007
-0.034887619 0.031215239 0.96400005
-0.03298286 0.031150477 0.96200007
-0.031053334 0.031053334 0.95900005
-0.029226668 0.031053334 0.95900005
-0.027314287 0.030956192 0.95600003
-0.025493335 0.030956192 0.95600003
-0.083040006 0.035588574 1.0380001
-0.08075048 0.035451431 1.034
-0.078323811 0.035245717 1.028
-0.076142862 0.035142858 1.0250001
-0.073973335 0.035040002 1.0220001
-0.071815237 0.034937143 1.0190001
-0.069668576 0.034834288 1.016
-0.067533337 0.034731429 1.013
-0.065409526 0.034628574 1.01
-0.063297145 0.034525715 1.0070001
-0.061196193 0.03442286 1.0040001
-0.05910667 0.034320001 1.001
-0.056857146 0.034114286 0.99500006
-0.054796193 0.034011431 0.99200004
-0.052746668 0.033908572 0.98900002
-0.050760001 0.033840001 0.98700005
-0.048731431 0.033737145 0.98400003
-0.046714287 0.033634286 0.98100007
-0.044845715 0.033634286 0.98100007
-0.042845715 0.033531431 0.97800004
-0.040773336 0.033360001 0.97300005
-0.038800001 0.033257145 0.97000003
-0.036838096 0.033154286 0.96700007
-0.034887619 0.033051431 0.96400005
-0.033051431 0.033051431 0.96400005
-0.031150477 0.03298286 0.96200007
-0.029226668 0.032880001 0.95900005
-0.027314287 0.032777146 0.95600003
-0.025493335 0.032777146 0.95600003
-0.08075048 0.037420955 1.034
-0.078323811 0.037203811 1.028
-0.076142862 0.037095241 1.0250001
-0.073973335 0.036986668 1.0220001
-0.071815237 0.036878098 1.0190001
-0.069668576 0.036769524 1.016
-0.067533337 0.036660954 1.013
-0.065409526 0.036552381 1.01
-0.063297145 0.036443811 1.0070001
-0.061379049 0.036443811 1.0070001
-0.05910667 0.036226667 1.001
-0.056857146 0.036009524 0.99500006
-0.054796193 0.035900954 0.99200004
-0.052746668 0.035792381 0.98900002
-0.050760001 0.035720002 0.98700005
-0.048731431 0.035611428 0.98400003
-0.046714287 0.035502858 0.98100007
-0.044845715 0.035502858 0.98100007
-0.042845715 0.035394289 0.97800004
-0.040773336 0.035213336 0.97300005
-0.038800001 0.035104763 0.97000003
-0.036838096 0.034996193 0.96700007
-0.034887619 0.034887619 0.96400005
-0.033051431 0.034887619 0.96400005
-0.031150477 0.034815241 0.96200007
-0.029226668 0.034706667 0.95900005
-0.027400002 0.034706667 0.95900005
-0.025493335 0.034598097 0.95600003
-0.08075048 0.039390478 1.034
-0.078323811 0.039161906 1.028
-0.076142862 0.039047621 1.0250001
-0.073973335 0.038933333 1.0220001
-0.071603812 0.038704764 1.016
-0.069668576 0.038704764 1.016
-0.067533337 0.038590476 1.013
-0.065409526 0.038476191 1.01
-0.063297145 0.038361907 1.0070001
-0.061196193 0.038247619 1.0040001
-0.05910667 0.038133334 1.001
-0.056857146 0.037904762 0.99500006
-0.054796193 0.037790477 0.99200004
-0.052746668 0.037676193 0.98900002
-0.05086286 0.037676193 0.98900002
-0.048880003 0.037600003 0.98700005
-0.046857145 0.037485715 0.98400003
-0.044845715 0.037371431 0.98100007
-0.042845715 0.037257146 0.97800004
-0.040773336 0.037066668 0.97300005
-0.038800001 0.036952384 0.97000003
-0.036838096 0.036838096 0.96700007
-0.034996193 0.036838096 0.96700007
-0.033051431 0.036723811 0.96400005
-0.031150477 0.036647622 0.96200007
-0.029226668 0.036533333 0.95900005
-0.027400002 0.036533333 0.95900005
-0.025493335 0.036419049 0.95600003
0.037840001 0.036038097 0.94600004
-0.08075048 0.041360002 1.034
-0.078323811 0.04112 1.028
-0.076142862 0.041000001 1.0250001
-0.073973335 0.040880002 1.0220001
-0.071603812 0.04064 1.016
-0.069668576 0.04064 1.016
-0.067533337 0.040520001 1.013
-0.065409526 0.040400002 1.01
-0.063297145 0.040280003 1.0070001
-0.061196193 0.04016 1.0040001
-0.05910667 0.040040001 1.001
-0.056857146 0.039800003 0.99500006
-0.054796193 0.03968 0.99200004
-0.05290667 0.03968 0.99200004
-0.05086286 0.039560001 0.98900002
-0.048880003 0.039480001 0.98700005
-0.046857145 0.039360002 0.98400003
-0.044845715 0.039240003 0.98100007
-0.042845715 0.03912 0.97800004
-0.040773336 0.03892 0.97300005
-0.038800001 0.038800001 0.97000003
-0.036952384 0.038800001 0.97000003
-0.034996193 0.038680002 0.96700007
-0.033051431 0.038560003 0.96400005
-0.031150477 0.038480002 0.96200007
-0.029226668 0.03836 0.95900005
-0.027400002 0.03836 0.95900005
-0.025493335 0.038240001 0.95600003
0.024933334 0.0374 0.93500006
0.026714286 0.0374 0.93500006
0.028586667 0.037520003 0.93800002
0.030373335 0.037520003 0.93800002
0.034127619 0.037720002 0.94300002
0.036038097 0.037840001 0.94600004
0.037840001 0.037840001 0.94600004
0.039641906 0.037840001 0.94600004
-0.08075048 0.043329526 1.034
-0.078323811 0.043078098 1.028
-0.076142862 0.042952381 1.0250001
-0.073973335 0.042826667 1.0220001
-0.071815237 0.042700954 1.0190001
-0.069668576 0.04257524 1.016
-0.067733333 0.04257524 1.016
-0.065603815 0.042449526 1.013
-0.063485719 0.042323813 1.01
-0.061196193 0.042072382 1.0040001
-0.05910667 0.041946668 1.001
-0.056857146 0.041695241 0.99500006
-0.054796193 0.041569524 0.99200004
-0.05290667 0.041569524 0.99200004
-0.05086286 0.04144381 0.98900002
-0.048880003 0.041360002 0.98700005
-0.046857145 0.041234288 0.98400003
-0.044845715 0.041108575 0.98100007
-0.042845715 0.040982857 0.97800004
-0.040773336 0.040773336 0.97300005
-0.03892 0.040773336 0.97300005
-0.036952384 0.040647622 0.97000003
-0.034996193 0.040521905 0.96700007
-0.033154286 0.040521905 0.96700007
-0.031150477 0.040312383 0.96200007
-0.029226668 0.04018667 0.95900005
-0.027400002 0.04018667 0.95900005
-0.025493335 0.040060952 0.95600003
0.02137143 0.039180953 0.93500006
0.023152381 0.039180953 0.93500006
0.024933334 0.039180953 0.93500006
0.026800001 0.039306667 0.93800002
0.028586667 0.039306667 0.93800002
0.030373335 0.039306667 0.93800002
0.032228574 0.039390478 0.94000006
0.034127619 0.039516192 0.94300002
0.036038097 0.039641906 0.94600004
0.037840001 0.039641906 0.94600004
0.039641906 0.039641906 0.94600004
-0.081062861 0.045474287 1.0380001
-0.078780957 0.045299049 1.034
-0.076142862 0.044904765 1.0250001
-0.073973335 0.044773336 1.0220001
-0.071815237 0.044641908 1.0190001
-0.069668576 0.044510476 1.016
-0.067733333 0.044510476 1.016
-0.065603815 0.044379048 1.013
-0.063485719 0.04424762 1.01
-0.061379049 0.044116192 1.0070001
-0.059283812 0.043984763 1.0040001
-0.057028573 0.043721907 0.99800003
-0.054961909 0.043590479 0.99500006
-0.05290667 0.04345905 0.99200004
-0.05086286 0.043327622 0.98900002
-0.048979048 0.043327622 0.98900002
-0.047000002 0.043240003 0.98700005
-0.044982858 0.043108571 0.98400003
-0.042977143 0.042977143 0.98100007
-0.040857144 0.042714287 0.97500002
-0.03892 0.042626668 0.97300005
-0.036952384 0.04249524 0.97000003
-0.034996193 0.042363811 0.96700007
-0.033154286 0.042363811 0.96700007
-0.031150477 0.042144764 0.96200007
-0.029226668 0.042013336 0.95900005
-0.027400002 0.042013336 0.95900005
-0.025493335 0.041881908 0.95600003
-0.023672381 0.041881908 0.95600003
0.0035238096 0.040523812 0.92500007
0.0052857143 0.040523812 0.92500007
0.02137143 0.040961906 0.93500006
0.023152381 0.040961906 0.93500006
0.024933334 0.040961906 0.93500006
0.026800001 0.041093335 0.93800002
0.028586667 0.041093335 0.93800002
0.030373335 0.041093335 0.93800002
0.032228574 0.041180953 0.94000006
0.034127619 0.041312382 0.94300002
0.035923813 0.041312382 0.94300002
0.037840001 0.04144381 0.94600004
0.039641906 0.04144381 0.94600004
0.04144381 0.04144381 0.94600004
-0.078780957 0.047268573 1.034
-0.076365717 0.046994288 1.028
-0.074190482 0.046857145 1.0250001
-0.071815237 0.046582859 1.0190001
-0.069668576 0.046445716 1.016
-0.067733333 0.046445716 1.016
-0.065603815 0.046308573 1.013
-0.063485719 0.04617143 1.01
-0.061379049 0.046034288 1.0070001
-0.059283812 0.045897145 1.0040001
-0.057028573 0.045622859 0.99800003
-0.054961909 0.045485716 0.99500006
-0.05290667 0.045348573 0.99200004
-0.051017147 0.045348573 0.99200004
-0.048979048 0.045211431 0.98900002
-0.047000002 0.045120001 0.98700005
-0.044982858 0.044982858 0.98400003
-0.042977143 0.044845715 0.98100007
-0.040857144 0.044571429 0.97500002
-0.03892 0.044480003 0.97300005
-0.036952384 0.044342861 0.97000003
-0.035104763 0.044342861 0.97000003
-0.033154286 0.044205718 0.96700007
-0.031215239 0.044068575 0.96400005
-0.029318096 0.043977145 0.96200007
-0.027400002 0.043840002 0.95900005
-0.025493335 0.043702859 0.95600003
-0.023672381 0.043702859 0.95600003
0.02137143 0.04274286 0.93500006
0.023152381 0.04274286 0.93500006
0.024933334 0.04274286 0.93500006
0.026800001 0.042880002 0.93800002
0.028586667 0.042880002 0.93800002
0.030373335 0.042880002 0.93800002
0.032228574 0.042971428 0.94000006
0.034127619 0.043108571 0.94300002
0.035923813 0.043108571 0.94300002
0.037840001 0.043245714 0.94600004
0.039641906 0.043245714 0.94600004
0.04144381 0.043245714 0.94600004
0.043245714 0.043245714 0.94600004
-0.081062861 0.049428575 1.0380001
-0.078780957 0.049238097 1.034
-0.076365717 0.048952382 1.028
-0.074190482 0.048809525 1.0250001
-0.071815237 0.04852381 1.0190001
-0.069668576 0.048380952 1.016
-0.067733333 0.048380952 1.016
-0.065603815 0.048238099 1.013
-0.063674286 0.048238099 1.013
-0.061561909 0.048095241 1.01
-0.059283812 0.047809526 1.0040001
-0.057028573 0.047523811 0.99800003
-0.054961909 0.047380954 0.99500006
-0.05290667 0.047238097 0.99200004
-0.051017147 0.047238097 0.99200004
-0.048979048 0.047095239 0.98900002
-0.047000002 0.047000002 0.98700005
-0.044982858 0.046857145 0.98400003
-0.042845715 0.04657143 0.97800004
-0.040857144 0.046428572 0.97500002
-0.03892 0.046333335 0.97300005
-0.036952384 0.046190478 0.97000003
-0.035104763 0.046190478 0.97000003
-0.033154286 0.04604762 0.96700007
-0.031215239 0.045904763 0.96400005
-0.029318096 0.045809526 0.96200007
-0.027400002 0.045666669 0.95900005
-0.025573334 0.045666669 0.95900005
-0.023672381 0.045523811 0.95600003
-0.02185143 0.045523811 0.95600003
0.02137143 0.044523813 0.93500006
0.023152381 0.044523813 0.93500006
0.024933334 0.044523813 0.93500006
0.026800001 0.044666667 0.93800002
0.028586667 0.044666667 0.93800002
0.030373335 0.044666667 0.93800002
0.032228574 0.044761907 0.94000006
0.034127619 0.044904765 0.94300002
0.035923813 0.044904765 0.94300002
0.037840001 0.045047622 0.94600004
0.039641906 0.045047622 0.94600004
0.04144381 0.045047622 0.94600004
0.043245714 0.045047622 0.94600004
-0.081062861 0.051405717 1.0380001
-0.078780957 0.051207621 1.034
-0.076365717 0.050910477 1.028
-0.074190482 0.050761908 1.0250001
-0.071815237 0.050464764 1.0190001
-0.069668576 0.050316192 1.016
-0.067733333 0.050316192 1.016
-0.065603815 0.05016762 1.013
-0.063485719 0.050019048 1.01
-0.061379049 0.04987048 1.0070001
-0.059283812 0.049721908 1.0040001
-0.057200003 0.049573336 1.001
-0.055127621 0.049424764 0.99800003
-0.053066667 0.049276192 0.99500006
-0.051017147 0.04912762 0.99200004
-0.048979048 0.048979048 0.98900002
-0.047000002 0.048880003 0.98700005
-0.044982858 0.048731431 0.98400003
-0.042845715 0.048434287 0.97800004
-0.040982857 0.048434287 0.97800004
-0.03892 0.048186667 0.97300005
-0.036952384 0.048038095 0.97000003
-0.035104763 0.048038095 0.97000003
-0.033154286 0.047889527 0.96700007
-0.031215239 0.047740955 0.96400005
-0.029318096 0.047641907 0.96200007
-0.027400002 0.047493335 0.95900005
-0.025573334 0.047493335 0.95900005
-0.023672381 0.047344763 0.95600003
-0.02185143 0.047344763 0.95600003
0.02137143 0.046304762 0.93500006
0.023152381 0.046304762 0.93500006
0.024933334 0.046304762 0.93500006
0.026800001 0.046453334 0.93800002
0.028586667 0.046453334 0.93800002
0.030373335 0.046453334 0.93800002
0.032228574 0.046552382 0.94000006
0.034019049 0.046552382 0.94000006
0.035923813 0.046700954 0.94300002
0.037840001 0.046849526 0.94600004
0.039641906 0.046849526 0.94600004
0.041531429 0.046948574 0.94800007
0.043337144 0.046948574 0.94800007
-0.081062861 0.053382859 1.0380001
-0.078780957 0.053177144 1.034
-0.076365717 0.052868575 1.028
-0.074190482 0.052714288 1.0250001
-0.07202667 0.052560002 1.0220001
-0.069668576 0.052251432 1.016
-0.067733333 0.052251432 1.016
-0.065603815 0.052097145 1.013
-0.063485719 0.051942859 1.01
-0.061379049 0.051788572 1.0070001
-0.059283812 0.051634289 1.0040001
-0.057200003 0.051480003 1.001
-0.055127621 0.051325716 0.99800003
-0.053066667 0.051171429 0.99500006
-0.051017147 0.051017147 0.99200004
-0.048979048 0.05086286 0.98900002
-0.047000002 0.050760001 0.98700005
-0.044982858 0.050605714 0.98400003
-0.042845715 0.050297145 0.97800004
-0.040982857 0.050297145 0.97800004
-0.039000001 0.050142858 0.97500002
-0.037066668 0.050040003 0.97300005
-0.035104763 0.049885716 0.97000003
-0.033154286 0.04973143 0.96700007
-0.031215239 0.049577143 0.96400005
-0.029318096 0.049474288 0.96200007
-0.027400002 0.049320001 0.95900005
-0.025573334 0.049320001 0.95900005
-0.023672381 0.049165715 0.95600003
-0.02185143 0.049165715 0.95600003
-0.019988572 0.049062859 0.95400006
0.0070704767 0.047725715 0.92800003
0.019590477 0.048085716 0.93500006
0.02137143 0.048085716 0.93500006
0.023152381 0.048085716 0.93500006
0.025013335 0.048240002 0.93800002
0.026800001 0.048240002 0.93800002
0.028586667 0.048240002 0.93800002
0.030373335 0.048240002 0.93800002
0.032228574 0.048342858 0.94000006
0.034019049 0.048342858 0.94000006
0.035923813 0.048497144 0.94300002
0.037840001 0.048651431 0.94600004
0.039641906 0.048651431 0.94600004
0.041531429 0.048754286 0.94800007
0.043337144 0.048754286 0.94800007
-0.081062861 0.055360001 1.0380001
-0.078780957 0.055146668 1.034
-0.076365717 0.054826669 1.028
-0.074190482 0.054666668 1.0250001
-0.072238095 0.054666668 1.0250001
-0.070080005 0.054506667 1.0220001
-0.067933336 0.054346669 1.0190001
-0.065798096 0.054186668 1.016
-0.063674286 0.054026667 1.013
-0.061561909 0.05386667 1.01
-0.059283812 0.053546667 1.0040001
-0.057200003 0.05338667 1.001
-0.055293337 0.05338667 1.001
-0.053066667 0.053066667 0.99500006
-0.051017147 0.05290667 0.99200004
-0.048979048 0.052746668 0.98900002
-0.047000002 0.052640002 0.98700005
-0.044982858 0.052480001 0.98400003
-0.042977143 0.052320004 0.98100007
-0.040982857 0.052160002 0.97800004
-0.039000001 0.052000001 0.97500002
-0.037066668 0.051893335 0.97300005
-0.035104763 0.051733334 0.97000003
-0.033154286 0.051573336 0.96700007
-0.031312384 0.051573336 0.96700007
-0.029318096 0.051306669 0.96200007
-0.027485715 0.051306669 0.96200007
-0.025573334 0.051146667 0.95900005
-0.023672381 0.05098667 0.95600003
-0.02185143 0.05098667 0.95600003
-0.019988572 0.050880004 0.95400006
-0.0017676192 0.049493335 0.92800003
0 0.049493335 0.92800003
0.0017676192 0.049493335 0.92800003
0.0035352383 0.049493335 0.92800003
0.0053028571 0.049493335 0.92800003
0.0070704767 0.049493335 0.92800003
0.019590477 0.049866669 0.93500006
0.021440001 0.05002667 0.93800002
0.023226667 0.05002667 0.93800002
0.025013335 0.05002667 0.93800002
0.026800001 0.05002667 0.93800002
0.02864762 0.050133336 0.94000006
0.030438097 0.050133336 0.94000006
0.036038097 0.050453335 0.94600004
0.037840001 0.050453335 0.94600004
0.039641906 0.050453335 0.94600004
0.041531429 0.050560001 0.94800007
0.043337144 0.050560001 0.94800007
-0.081062861 0.057337146 1.0380001
-0.078780957 0.057116192 1.034
-0.076365717 0.056784764 1.028
-0.074407622 0.056784764 1.028
-0.072238095 0.056619048 1.0250001
-0.070080005 0.056453336 1.0220001
-0.067933336 0.05628762 1.0190001
-0.065798096 0.056121908 1.016
-0.063674286 0.055956192 1.013
-0.061561909 0.055790477 1.01
-0.059283812 0.055459049 1.0040001
-0.05737143 0.055459049 1.0040001
-0.055293337 0.055293337 1.001
-0.053226668 0.055127621 0.99800003
-0.051017147 0.054796193 0.99200004
-0.048979048 0.054630477 0.98900002
-0.047000002 0.054520003 0.98700005
-0.044982858 0.054354288 0.98400003
-0.042977143 0.054188572 0.98100007
-0.040982857 0.05402286 0.97800004
-0.039000001 0.053857144 0.97500002
-0.037066668 0.05374667 0.97300005
-0.035104763 0.053580955 0.97000003
-0.033154286 0.053415239 0.96700007
-0.031312384 0.053415239 0.96700007
-0.029379049 0.053249527 0.96400005
-0.027485715 0.05313905 0.96200007
-0.025573334 0.052973334 0.95900005
-0.023746667 0.052973334 0.95900005
-0.02185143 0.052807622 0.95600003
-0.019988572 0.052697144 0.95400006
-0.0017676192 0.051260956 0.92800003
0 0.051260956 0.92800003
0.0017676192 0.051260956 0.92800003
0.0035352383 0.051260956 0.92800003
0.0053028571 0.051260956 0.92800003
0.0070704767 0.051260956 0.92800003
0.0088380957 0.051260956 0.92800003
0.019590477 0.051647622 0.93500006
0.021440001 0.051813334 0.93800002
0.023226667 0.051813334 0.93800002
0.025013335 0.051813334 0.93800002
0.026800001 0.051813334 0.93800002
0.02864762 0.051923811 0.94000006
0.036038097 0.052255239 0.94600004
0.037920002 0.052365717 0.94800007
0.039725717 0.052365717 0.94800007
0.041531429 0.052365717 0.94800007
0.043337144 0.052365717 0.94800007
-0.081062861 0.059314288 1.0380001
-0.078780957 0.059085716 1.034
-0.076365717 0.058742858 1.028
-0.074407622 0.058742858 1.028
-0.072238095 0.058571432 1.0250001
-0.070080005 0.058400001 1.0220001
-0.067933336 0.058228575 1.0190001
-0.065798096 0.058057144 1.016
-0.063674286 0.057885718 1.013
-0.061561909 0.057714287 1.01
-0.059283812 0.05737143 1.0040001
-0.05737143 0.05737143 1.0040001
-0.055293337 0.057200003 1.001
-0.053226668 0.057028573 0.99800003
-0.051171429 0.056857146 0.99500006
-0.04912762 0.056685716 0.99200004
-0.047095239 0.056514289 0.98900002
-0.044982858 0.056228574 0.98400003
-0.043108571 0.056228574 0.98400003
-0.040982857 0.055885717 0.97800004
-0.03912 0.055885717 0.97800004
-0.037142858 0.055714287 0.97500002
-0.035213336 0.055600002 0.97300005
-0.033257145 0.055428572 0.97000003
-0.031312384 0.055257145 0.96700007
-0.029379049 0.055085715 0.96400005
-0.027485715 0.05497143 0.96200007
-0.025573334 0.054800004 0.95900005
-0.023746667 0.054800004 0.95900005
-0.02185143 0.054628573 0.95600003
-0.019988572 0.054514289 0.95400006
-0.0017676192 0.053028572 0.92800003
0 0.053028572 0.92800003
0.0017676192 0.053028572 0.92800003
0.0035352383 0.053028572 0.92800003
0.0053028571 0.053028572 0.92800003
0.0070704767 0.053028572 0.92800003
0.0088380957 0.053028572 0.92800003
0.017809525 0.053428572 0.93500006
0.019590477 0.053428572 0.93500006
0.021440001 0.053600002 0.93800002
0.023226667 0.053600002 0.93800002
0.025013335 0.053600002 0.93800002
0.026857143 0.053714287 0.94000006
0.02864762 0.053714287 0.94000006
0.034236193 0.054057144 0.94600004
0.036114287 0.054171432 0.94800007
0.037920002 0.054171432 0.94800007
0.039725717 0.054171432 0.94800007
0.041531429 0.054171432 0.94800007
0.043474287 0.054342858 0.95100003
-0.083280005 0.061468575 1.041
-0.081062861 0.06129143 1.0380001
-0.078780957 0.061055239 1.034
-0.076365717 0.060700953 1.028
-0.074407622 0.060700953 1.028
-0.072238095 0.060523812 1.0250001
-0.070080005 0.06034667 1.0220001
-0.067933336 0.060169525 1.0190001
-0.065798096 0.059992384 1.016
-0.063674286 0.059815239 1.013
-0.061561909 0.059638098 1.01
-0.059460953 0.059460953 1.0070001
-0.05737143 0.059283812 1.0040001
-0.055293337 0.05910667 1.001
-0.053226668 0.058929525 0.99800003
-0.051171429 0.058752384 0.99500006
-0.04912762 0.058575239 0.99200004
-0.047095239 0.058398098 0.98900002
-0.044982858 0.058102861 0.98400003
-0.043108571 0.058102861 0.98400003
-0.041108575 0.057925716 0.98100007
-0.03912 0.057748575 0.97800004
-0.037142858 0.05757143 0.97500002
-0.035213336 0.057453334 0.97300005
-0.033257145 0.057276193 0.97000003
-0.031409524 0.057276193 0.97000003
-0.029470477 0.057099048 0.96700007
-0.027542857 0.056921907 0.96400005
-0.025653334 0.056803811 0.96200007
-0.023746667 0.05662667 0.95900005
-0.02185143 0.056449525 0.95600003
-0.0017676192 0.054796193 0.92800003
0 0.054796193 0.92800003
0.0017676192 0.054796193 0.92800003
0.0035352383 0.054796193 0.92800003
0.0053028571 0.054796193 0.92800003
0.0070704767 0.054796193 0.92800003
0.0088380957 0.054796193 0.92800003
0.016028572 0.055209525 0.93500006
0.017809525 0.055209525 0.93500006
0.019590477 0.055209525 0.93500006
0.021440001 0.05538667 0.93800002
0.023276191 0.055504765 0.94000006
0.025066668 0.055504765 0.94000006
0.026857143 0.055504765 0.94000006
0.032434288 0.055859048 0.94600004
0.034236193 0.055859048 0.94600004
0.036114287 0.055977143 0.94800007
0.037920002 0.055977143 0.94800007
0.039725717 0.055977143 0.94800007
0.041531429 0.055977143 0.94800007
-0.081062861 0.063268572 1.0380001
-0.078780957 0.063024767 1.034
-0.076365717 0.062659048 1.028
-0.074407622 0.062659048 1.028
-0.072238095 0.062476192 1.0250001
-0.070080005 0.062293336 1.0220001
-0.067933336 0.06211048 1.0190001
-0.065798096 0.06192762 1.016
-0.063674286 0.061744764 1.013
-0.061561909 0.061561909 1.01
-0.059460953 0.061379049 1.0070001
-0.05737143 0.061196193 1.0040001
-0.055293337 0.061013337 1.001
-0.053226668 0.060830478 0.99800003
-0.051171429 0.060647622 0.99500006
-0.04912762 0.060464766 0.99200004
-0.047095239 0.060281906 0.98900002
-0.045120001 0.060160004 0.98700005
-0.043108571 0.059977144 0.98400003
-0.041108575 0.059794288 0.98100007
-0.03912 0.059611432 0.97800004
-0.037142858 0.059428573 0.97500002
-0.035213336 0.05930667 0.97300005
-0.033257145 0.05912381 0.97000003
-0.031409524 0.05912381 0.97000003
-0.029470477 0.058940955 0.96700007
-0.027542857 0.058758099 0.96400005
-0.025653334 0.058636192 0.96200007
-0.023746667 0.058453336 0.95900005
-0.02185143 0.058270477 0.95600003
-0.019925715 0.057965718 0.95100003
0.0017676192 0.056563813 0.92800003
0.0035352383 0.056563813 0.92800003
0.0053028571 0.056563813 0.92800003
0.0070704767 0.056563813 0.92800003
0.016028572 0.056990478 0.93500006
0.017809525 0.056990478 0.93500006
0.019653333 0.057173334 0.93800002
0.021440001 0.057173334 0.93800002
0.023276191 0.05729524 0.94000006
0.025066668 0.05729524 0.94000006
0.026857143 0.05729524 0.94000006
0.03053524 0.057478096 0.94300002
0.032434288 0.057660956 0.94600004
0.034236193 0.057660956 0.94600004
0.036114287 0.057782859 0.94800007
0.037920002 0.057782859 0.94800007
0.039851431 0.057965718 0.95100003
0.041662857 0.057965718 0.95100003
-0.081062861 0.065245718 1.0380001
-0.078780957 0.06499429 1.034
-0.076365717 0.064617142 1.028
-0.074407622 0.064617142 1.028
-0.072238095 0.064428575 1.0250001
-0.070080005 0.064240001 1.0220001
-0.067933336 0.064051434 1.0190001
-0.065798096 0.06386286 1.016
-0.063674286 0.063674286 1.013
-0.061744764 0.063674286 1.013
-0.059460953 0.063297145 1.0070001
-0.05737143 0.063108571 1.0040001
-0.055293337 0.062920004 1.001
-0.053226668 0.06273143 0.99800003
-0.051171429 0.062542856 0.99500006
-0.04912762 0.062354289 0.99200004
-0.047095239 0.062165715 0.98900002
-0.045120001 0.062040001 0.98700005
-0.043108571 0.061851431 0.98400003
-0.041108575 0.06166286 0.98100007
-0.03912 0.06147429 0.97800004
-0.037257146 0.06147429 0.97800004
-0.035213336 0.061160002 0.97300005
-0.033360001 0.061160002 0.97300005
-0.031409524 0.060971431 0.97000003
-0.029470477 0.060782861 0.96700007
-0.027542857 0.060594287 0.96400005
-0.025653334 0.060468573 0.96200007
-0.023746667 0.060280003 0.95900005
-0.02185143 0.060091432 0.95600003
-0.019988572 0.059965715 0.95400006
-0.018114286 0.059777144 0.95100003
0.016028572 0.058771431 0.93500006
0.017866667 0.058960002 0.93800002
0.019653333 0.058960002 0.93800002
0.021440001 0.058960002 0.93800002
0.023276191 0.059085716 0.94000006
0.025066668 0.059085716 0.94000006
0.03053524 0.05927429 0.94300002
0.032434288 0.05946286 0.94600004
0.034236193 0.05946286 0.94600004
0.036114287 0.059588574 0.94800007
0.037920002 0.059588574 0.94800007
0.039851431 0.059777144 0.95100003
-0.081297144 0.067417145 1.041
-0.078780957 0.066963814 1.034
-0.076588571 0.066769525 1.031
-0.074407622 0.066575244 1.028
-0.072238095 0.066380955 1.0250001
-0.070080005 0.066186666 1.0220001
-0.067933336 0.065992385 1.0190001
-0.065798096 0.065798096 1.016
-0.063674286 0.065603815 1.013
-0.061744764 0.065603815 1.013
-0.059460953 0.065215237 1.0070001
-0.05737143 0.065020956 1.0040001
-0.055293337 0.064826667 1.001
-0.05338667 0.064826667 1.001
-0.051171429 0.064438097 0.99500006
-0.04912762 0.064243808 0.99200004
-0.047095239 0.064049527 0.98900002
-0.045211431 0.064049527 0.98900002
-0.043240003 0.063919999 0.98700005
-0.041234288 0.063725717 0.98400003
-0.03912 0.063337147 0.97800004
-0.037257146 0.063337147 0.97800004
-0.035285715 0.063142858 0.97500002
-0.033360001 0.063013338 0.97300005
-0.031409524 0.062819049 0.97000003
-0.029561905 0.062819049 0.97000003
-0.027542857 0.062430479 0.96400005
-0.025653334 0.062300954 0.96200007
-0.023746667 0.062106669 0.95900005
-0.02185143 0.061912384 0.95600003
-0.019988572 0.061782859 0.95400006
-0.018114286 0.061588574 0.95100003
-0.01625143 0.061394289 0.94800007
0.017866667 0.06074667 0.93800002
0.019653333 0.06074667 0.93800002
0.021485714 0.060876194 0.94000006
0.023276191 0.060876194 0.94000006
0.030632382 0.061264765 0.94600004
0.032434288 0.061264765 0.94600004
0.034236193 0.061264765 0.94600004
0.036114287 0.061394289 0.94800007
0.037920002 0.061394289 0.94800007
0.039851431 0.061588574 0.95100003
-0.081297144 0.069400005 1.041
-0.079085715 0.069200002 1.0380001
-0.076811433 0.068933338 1.034
-0.074407622 0.068533339 1.028
-0.072238095 0.068333335 1.0250001
-0.070080005 0.068133339 1.0220001
-0.067933336 0.067933336 1.0190001
-0.065798096 0.067733333 1.016
-0.063674286 0.067533337 1.013
-0.061744764 0.067533337 1.013
-0.059460953 0.067133337 1.0070001
-0.05737143 0.066933334 1.0040001
-0.055459049 0.066933334 1.0040001
-0.05338667 0.066733338 1.001
-0.051325716 0.066533335 0.99800003
-0.049276192 0.066333339 0.99500006
-0.047238097 0.066133335 0.99200004
-0.045211431 0.065933339 0.98900002
-0.043240003 0.065800004 0.98700005
-0.041234288 0.0656 0.98400003
-0.039240003 0.065400004 0.98100007
-0.037257146 0.065200001 0.97800004
-0.035285715 0.065000005 0.97500002
-0.033360001 0.064866669 0.97300005
-0.031409524 0.064666666 0.97000003
-0.029561905 0.064666666 0.97000003
-0.027542857 0.064266667 0.96400005
-0.025653334 0.064133339 0.96200007
-0.023746667 0.063933335 0.95900005
-0.021920001 0.063933335 0.95900005
-0.019988572 0.063600004 0.95400006
-0.018114286 0.0634 0.95100003
-0.01625143 0.063200004 0.94800007
0.0017771429 0.062200002 0.93300003
0.0035542857 0.062200002 0.93300003
0.0071085715 0.062200002 0.93300003
0.014293334 0.062533334 0.93800002
0.016080001 0.062533334 0.93800002
0.017866667 0.062533334 0.93800002
0.019653333 0.062533334 0.93800002
0.021485714 0.062666669 0.94000006
0.030632382 0.063066669 0.94600004
0.032434288 0.063066669 0.94600004
0.034308571 0.063200004 0.94800007
0.036114287 0.063200004 0.94800007
0.038040001 0.0634 0.95100003
0.039977144 0.063600004 0.95400006
-0.081297144 0.071382858 1.041
-0.079085715 0.071177147 1.0380001
-0.076811433 0.070902862 1.034
-0.074624762 0.070697144 1.031
-0.072449528 0.070491433 1.028
-0.070285715 0.070285715 1.0250001
-0.067933336 0.069874287 1.0190001
-0.065798096 0.069668576 1.016
-0.063674286 0.069462858 1.013
-0.061744764 0.069462858 1.013
-0.059460953 0.06905143 1.0070001
-0.05737143 0.068845719 1.0040001
-0.055459049 0.068845719 1.0040001
-0.05338667 0.068640001 1.001
-0.051325716 0.068434291 0.99800003
-0.049276192 0.068228573 0.99500006
-0.047238097 0.068022862 0.99200004
-0.045211431 0.067817144 0.98900002
-0.043327622 0.067817144 0.98900002
-0.041360002 0.067680001 0.98700005
-0.039360002 0.067474291 0.98400003
-0.037257146 0.067062862 0.97800004
-0.035285715 0.066857144 0.97500002
-0.033428572 0.066857144 0.97500002
-0.031506669 0.066720001 0.97300005
-0.029561905 0.066514291 0.97000003
-0.027628573 0.066308573 0.96700007
-0.025653334 0.06596572 0.96200007
-0.023746667 0.065760002 0.95900005
-0.021805715 0.065417148 0.95400006
-0.019988572 0.065417148 0.95400006
-0.018114286 0.06521143 0.95100003
-0.01625143 0.06500572 0.94800007
-0.014445715 0.06500572 0.94800007
0 0.063977145 0.93300003
0.0017771429 0.063977145 0.93300003
0.0035542857 0.063977145 0.93300003
0.0053314287 0.063977145 0.93300003
0.0071085715 0.063977145 0.93300003
0.0088857142 0.063977145 0.93300003
0.010685715 0.064114287 0.93500006
0.012466667 0.064114287 0.93500006
0.014293334 0.064320005 0.93800002
0.016080001 0.064320005 0.93800002
0.017866667 0.064320005 0.93800002
0.019653333 0.064320005 0.93800002
0.021485714 0.064457148 0.94000006
0.027028572 0.064868577 0.94600004
0.028830478 0.064868577 0.94600004
0.030632382 0.064868577 0.94600004
0.03250286 0.06500572 0.94800007
0.034308571 0.06500572 0.94800007
0.036114287 0.06500572 0.94800007
0.037920002 0.06500572 0.94800007
0.039851431 0.06521143 0.95100003
0.041662857 0.06521143 0.95100003
-0.081297144 0.073365718 1.041
-0.079314291 0.073365718 1.041
-0.077108577 0.073154286 1.0380001
-0.074841909 0.072872385 1.034
-0.072449528 0.072449528 1.028
-0.070285715 0.072238095 1.0250001
-0.067933336 0.071815237 1.0190001
-0.065992385 0.071815237 1.0190001
-0.06386286 0.071603812 1.016
-0.061744764 0.071392387 1.013
-0.059460953 0.070969529 1.0070001
-0.057542861 0.070969529 1.0070001
-0.055459049 0.070758097 1.0040001
-0.05338667 0.070546672 1.001
