# .PCD v0.7 - Point Cloud Data file format
VERSION 0.7
FIELDS x y z
SIZE 4 4 4
TYPE F F F
COUNT 1 1 1
WIDTH 134
HEIGHT 1
VIEWPOINT 0 0 0 1 0 0 0
POINTS 134
DATA ascii
1.085 0.73500001 -0.48500001
1.095 0.73500001 -0.48500001
1.115 0.72500002 -0.495
1.105 0.72500002 -0.48500001
1.115 0.72500002 -0.48500001
1.115 0.73500001 -0.48500001
1.095 0.755 -0.495
1.095 0.745 -0.48500001
1.085 0.755 -0.48500001
1.095 0.755 -0.48500001
1.105 0.745 -0.48500001
1.105 0.755 -0.48500001
1.075 0.78500003 -0.495
1.075 0.79500002 -0.495
1.075 0.78500003 -0.48500001
1.0650001 0.79500002 -0.48500001
1.075 0.79500002 -0.48500001
1.085 0.76499999 -0.495
1.095 0.76499999 -0.495
1.085 0.77499998 -0.495
1.095 0.77499998 -0.495
1.085 0.76499999 -0.48500001
1.095 0.76499999 -0.48500001
1.085 0.77499998 -0.48500001
1.095 0.77499998 -0.48500001
1.105 0.76499999 -0.495
1.105 0.77499998 -0.495
1.105 0.76499999 -0.48500001
1.085 0.78500003 -0.495
1.095 0.78500003 -0.495
1.085 0.79500002 -0.495
1.085 0.78500003 -0.48500001
1.105 0.78500003 -0.495
1.135 0.71499997 -0.495
1.145 0.71499997 -0.495
1.155 0.71499997 -0.495
1.155 0.71499997 -0.48500001
1.165 0.71499997 -0.495
1.175 0.71499997 -0.495
1.165 0.71499997 -0.48500001
1.175 0.71499997 -0.48500001
1.1849999 0.70499998 -0.495
1.1950001 0.70499998 -0.495
1.1849999 0.71499997 -0.495
1.1950001 0.71499997 -0.495
1.1849999 0.71499997 -0.48500001
1.1950001 0.71499997 -0.48500001
1.205 0.71499997 -0.495
1.215 0.71499997 -0.495
1.205 0.71499997 -0.48500001
1.125 0.72500002 -0.495
1.135 0.72500002 -0.495
1.135 0.73500001 -0.495
1.125 0.72500002 -0.48500001
1.135 0.72500002 -0.48500001
1.125 0.73500001 -0.48500001
1.135 0.73500001 -0.48500001
1.145 0.72500002 -0.495
1.155 0.72500002 -0.495
1.145 0.73500001 -0.495
1.155 0.73500001 -0.495
1.145 0.72500002 -0.48500001
1.155 0.72500002 -0.48500001
1.145 0.73500001 -0.48500001
1.155 0.73500001 -0.48500001
1.135 0.745 -0.495
1.125 0.745 -0.48500001
1.165 0.72500002 -0.495
1.175 0.72500002 -0.495
1.165 0.72500002 -0.48500001
1.175 0.72500002 -0.48500001
1.1849999 0.72500002 -0.495
1.1950001 0.72500002 -0.495
1.1849999 0.72500002 -0.48500001
1.1950001 0.72500002 -0.48500001
1.1950001 0.73500001 -0.48500001
1.215 0.72500002 -0.495
1.205 0.73500001 -0.495
1.215 0.73500001 -0.495
1.205 0.72500002 -0.48500001
1.215 0.73500001 -0.48500001
1.225 0.72500002 -0.495
1.235 0.72500002 -0.495
1.225 0.73500001 -0.495
1.235 0.73500001 -0.495
1.225 0.73500001 -0.48500001
1.075 0.80500001 -0.495
1.075 0.815 -0.495
1.075 0.80500001 -0.48500001
1.085 0.80500001 -0.495
1.115 0.72500002 -0.47499999
1.105 0.73500001 -0.47499999
1.115 0.73500001 -0.47499999
1.115 0.73500001 -0.465
1.095 0.745 -0.47499999
1.095 0.755 -0.465
1.105 0.745 -0.47499999
1.115 0.745 -0.47499999
1.105 0.745 -0.465
1.115 0.745 -0.465
1.095 0.745 -0.45500001
1.075 0.79500002 -0.47499999
1.075 0.78500003 -0.465
1.085 0.77499998 -0.47499999
1.085 0.76499999 -0.465
1.085 0.77499998 -0.465
1.135 0.71499997 -0.47499999
1.145 0.71499997 -0.47499999
1.145 0.71499997 -0.465
1.175 0.70499998 -0.47499999
1.165 0.71499997 -0.47499999
1.165 0.71499997 -0.465
1.1849999 0.71499997 -0.47499999
1.1950001 0.71499997 -0.465
1.205 0.71499997 -0.47499999
1.215 0.71499997 -0.47499999
1.205 0.71499997 -0.465
1.215 0.71499997 -0.45500001
1.125 0.72500002 -0.47499999
1.135 0.72500002 -0.47499999
1.125 0.73500001 -0.47499999
1.135 0.72500002 -0.465
1.125 0.73500001 -0.465
1.135 0.73500001 -0.465
1.145 0.72500002 -0.47499999
1.155 0.72500002 -0.47499999
1.145 0.72500002 -0.465
1.125 0.73500001 -0.45500001
1.135 0.73500001 -0.45500001
1.165 0.72500002 -0.47499999
1.175 0.72500002 -0.47499999
1.205 0.72500002 -0.47499999
1.215 0.73500001 -0.465
1.235 0.73500001 -0.47499999
