# .PCD v0.7 - Point Cloud Data file format
VERSION 0.7
FIELDS x y z
SIZE 4 4 4
TYPE F F F
COUNT 1 1 1
WIDTH 1418
HEIGHT 1
VIEWPOINT 0 0 0 0 1 0 0
POINTS 1418
DATA ascii
-0.007474286 0.15509143 0.98100007
-0.0056057144 0.15509143 0.98100007
-0.003737143 0.15509143 0.98100007
-0.0018685715 0.15509143 0.98100007
0 0.15509143 0.98100007
0.0018685715 0.15509143 0.98100007
0.003737143 0.15509143 0.98100007
-0.68940002 0.18384001 1.149
-0.68721145 0.18384001 1.149
-0.68502289 0.18384001 1.149
-0.68283433 0.18384001 1.149
-0.68064576 0.18384001 1.149
-0.68081909 0.18448001 1.153
-0.67173338 0.1832 1.1450001
-0.092586674 0.15872 0.99200004
-0.090422861 0.15824001 0.98900002
-0.088539049 0.15824001 0.98900002
-0.086480007 0.15792 0.98700005
-0.084600002 0.15792 0.98700005
-0.082468577 0.15744001 0.98400003
-0.080594286 0.15744001 0.98400003
-0.07824 0.15648 0.97800004
-0.076142862 0.156 0.97500002
-0.073904768 0.1552 0.97000003
-0.072057143 0.1552 0.97000003
-0.070209526 0.1552 0.97000003
-0.068150476 0.15472001 0.96700007
-0.066308573 0.15472001 0.96700007
-0.064266667 0.15424001 0.96400005
-0.062430479 0.15424001 0.96400005
-0.060468573 0.15392001 0.96200007
-0.058636192 0.15392001 0.96200007
-0.05662667 0.15344 0.95900005
-0.054800004 0.15344 0.95900005
-0.052973334 0.15344 0.95900005
-0.051146667 0.15344 0.95900005
-0.049320001 0.15344 0.95900005
-0.047493335 0.15344 0.95900005
-0.045666669 0.15344 0.95900005
-0.043840002 0.15344 0.95900005
-0.042013336 0.15344 0.95900005
-0.04018667 0.15344 0.95900005
-0.03836 0.15344 0.95900005
-0.036533333 0.15344 0.95900005
-0.034706667 0.15344 0.95900005
-0.03298286 0.15392001 0.96200007
-0.031150477 0.15392001 0.96200007
-0.029318096 0.15392001 0.96200007
-0.027542857 0.15424001 0.96400005
-0.0093428576 0.15696001 0.98100007
-0.007474286 0.15696001 0.98100007
-0.0056057144 0.15696001 0.98100007
-0.003737143 0.15696001 0.98100007
-0.0018685715 0.15696001 0.98100007
0 0.15696001 0.98100007
0.0018685715 0.15696001 0.98100007
-0.68940002 0.18602858 1.149
-0.68721145 0.18602858 1.149
-0.68263811 0.18538097 1.1450001
-0.68045717 0.18538097 1.1450001
-0.67827624 0.18538097 1.1450001
-0.67373335 0.18473335 1.141
-0.66979432 0.18424763 1.138
-0.66762668 0.18424763 1.138
-0.6351124 0.18424763 1.138
-0.63077718 0.18424763 1.138
-0.62860954 0.18424763 1.138
-0.62644196 0.18424763 1.138
-0.092586674 0.16060953 0.99200004
-0.090422861 0.16012381 0.98900002
-0.088539049 0.16012381 0.98900002
-0.086480007 0.15980001 0.98700005
-0.084600002 0.15980001 0.98700005
-0.082468577 0.15931429 0.98400003
-0.080594286 0.15931429 0.98400003
-0.07824 0.15834287 0.97800004
-0.076142862 0.15785715 0.97500002
-0.074133337 0.15753333 0.97300005
-0.072057143 0.15704763 0.97000003
-0.070209526 0.15704763 0.97000003
-0.068150476 0.15656191 0.96700007
-0.066308573 0.15656191 0.96700007
-0.06446667 0.15656191 0.96700007
-0.062624767 0.15656191 0.96700007
-0.060468573 0.15575239 0.96200007
-0.058636192 0.15575239 0.96200007
-0.05662667 0.15526667 0.95900005
-0.054800004 0.15526667 0.95900005
-0.052973334 0.15526667 0.95900005
-0.051146667 0.15526667 0.95900005
-0.049320001 0.15526667 0.95900005
-0.047493335 0.15526667 0.95900005
-0.045666669 0.15526667 0.95900005
-0.043840002 0.15526667 0.95900005
-0.042013336 0.15526667 0.95900005
-0.04018667 0.15526667 0.95900005
-0.038480002 0.15575239 0.96200007
-0.036647622 0.15575239 0.96200007
-0.034815241 0.15575239 0.96200007
-0.03298286 0.15575239 0.96200007
-0.031150477 0.15575239 0.96200007
-0.029318096 0.15575239 0.96200007
-0.027542857 0.15607619 0.96400005
-0.025706667 0.15607619 0.96400005
-0.0093428576 0.15882857 0.98100007
-0.007474286 0.15882857 0.98100007
-0.0056057144 0.15882857 0.98100007
-0.003737143 0.15882857 0.98100007
-0.0018685715 0.15882857 0.98100007
0 0.15882857 0.98100007
-0.68940002 0.18821715 1.149
-0.6848191 0.18756191 1.1450001
-0.68025339 0.18690668 1.141
-0.67808002 0.18690668 1.141
-0.67590672 0.18690668 1.141
-0.6719619 0.18641524 1.138
-0.63294476 0.18641524 1.138
-0.63077718 0.18641524 1.138
-0.62860954 0.18641524 1.138
-0.62644196 0.18641524 1.138
-0.62427431 0.18641524 1.138
-0.62210667 0.18641524 1.138
-0.61993909 0.18641524 1.138
-0.61777145 0.18641524 1.138
-0.090697147 0.16249906 0.99200004
-0.088539049 0.16200763 0.98900002
-0.086655244 0.16200763 0.98900002
-0.084600002 0.16168001 0.98700005
-0.082468577 0.16118857 0.98400003
-0.080594286 0.16118857 0.98400003
-0.07824 0.16020572 0.97800004
-0.076142862 0.1597143 0.97500002
-0.074133337 0.15938668 0.97300005
-0.072057143 0.15889524 0.97000003
-0.070209526 0.15889524 0.97000003
-0.068150476 0.15840381 0.96700007
-0.066308573 0.15840381 0.96700007
-0.06446667 0.15840381 0.96700007
-0.062624767 0.15840381 0.96700007
-0.060782861 0.15840381 0.96700007
-0.058758099 0.15791239 0.96400005
-0.056803811 0.15758477 0.96200007
-0.054800004 0.15709335 0.95900005
-0.052973334 0.15709335 0.95900005
-0.051146667 0.15709335 0.95900005
-0.049320001 0.15709335 0.95900005
-0.047493335 0.15709335 0.95900005
-0.045666669 0.15709335 0.95900005
-0.043977145 0.15758477 0.96200007
-0.042144764 0.15758477 0.96200007
-0.040312383 0.15758477 0.96200007
-0.038480002 0.15758477 0.96200007
-0.036647622 0.15758477 0.96200007
-0.034815241 0.15758477 0.96200007
-0.03298286 0.15758477 0.96200007
-0.031150477 0.15758477 0.96200007
-0.029318096 0.15758477 0.96200007
-0.027542857 0.15791239 0.96400005
-0.025706667 0.15791239 0.96400005
-0.0093428576 0.16069715 0.98100007
-0.007474286 0.16069715 0.98100007
-0.0056057144 0.16069715 0.98100007
-0.003737143 0.16069715 0.98100007
-0.0018742858 0.16118857 0.98400003
0 0.16118857 0.98400003
-0.6848191 0.18974286 1.1450001
-0.67846477 0.18858287 1.138
-0.67629719 0.18858287 1.138
-0.67590672 0.18908 1.141
-0.6719619 0.18858287 1.138
-0.63072002 0.18792 1.1340001
-0.62856001 0.18792 1.1340001
-0.62639999 0.18792 1.1340001
-0.62424004 0.18792 1.1340001
-0.62208003 0.18792 1.1340001
-0.61992002 0.18792 1.1340001
-0.61993909 0.18858287 1.138
-0.52920002 0.18792 1.1340001
-0.090697147 0.16438858 0.99200004
-0.088539049 0.16389143 0.98900002
-0.086655244 0.16389143 0.98900002
-0.084600002 0.16356 0.98700005
-0.082720004 0.16356 0.98700005
-0.080594286 0.16306287 0.98400003
-0.078480005 0.16256572 0.98100007
-0.076377146 0.16206858 0.97800004
-0.074285716 0.16157143 0.97500002
-0.072280005 0.16124001 0.97300005
-0.070209526 0.16074286 0.97000003
-0.068361908 0.16074286 0.97000003
-0.066308573 0.16024572 0.96700007
-0.06446667 0.16024572 0.96700007
-0.062624767 0.16024572 0.96700007
-0.060782861 0.16024572 0.96700007
-0.058758099 0.15974858 0.96400005
-0.056803811 0.15941715 0.96200007
-0.05497143 0.15941715 0.96200007
-0.05313905 0.15941715 0.96200007
-0.051306669 0.15941715 0.96200007
-0.049320001 0.15892 0.95900005
-0.047493335 0.15892 0.95900005
-0.045666669 0.15892 0.95900005
-0.043977145 0.15941715 0.96200007
-0.042144764 0.15941715 0.96200007
-0.040312383 0.15941715 0.96200007
-0.038480002 0.15941715 0.96200007
-0.036647622 0.15941715 0.96200007
-0.034815241 0.15941715 0.96200007
-0.03298286 0.15941715 0.96200007
-0.031150477 0.15941715 0.96200007
-0.029318096 0.15941715 0.96200007
-0.027542857 0.15974858 0.96400005
-0.025706667 0.15974858 0.96400005
-0.023870477 0.15974858 0.96400005
-0.007474286 0.16256572 0.98100007
-0.0056057144 0.16256572 0.98100007
-0.0037485715 0.16306287 0.98400003
-0.0018742858 0.16306287 0.98400003
0 0.16306287 0.98400003
-0.67846477 0.19075048 1.138
-0.67629719 0.19075048 1.138
-0.63072002 0.19008 1.1340001
-0.62856001 0.19008 1.1340001
-0.62639999 0.19008 1.1340001
-0.62424004 0.19008 1.1340001
-0.62208003 0.19008 1.1340001
-0.61992002 0.19008 1.1340001
-0.52733338 0.18940952 1.13
-0.090422861 0.16577524 0.98900002
-0.088539049 0.16577524 0.98900002
-0.086480007 0.16544001 0.98700005
-0.08434286 0.16493715 0.98400003
-0.082468577 0.16493715 0.98400003
-0.080594286 0.16493715 0.98400003
-0.078480005 0.1644343 0.98100007
-0.076377146 0.16393143 0.97800004
-0.074285716 0.16342857 0.97500002
-0.072428577 0.16342857 0.97500002
-0.070426673 0.16309334 0.97300005
-0.068361908 0.16259049 0.97000003
-0.066514291 0.16259049 0.97000003
-0.06446667 0.16208762 0.96700007
-0.062624767 0.16208762 0.96700007
-0.060782861 0.16208762 0.96700007
-0.058940955 0.16208762 0.96700007
-0.056921907 0.16158476 0.96400005
-0.05497143 0.16124953 0.96200007
-0.05313905 0.16124953 0.96200007
-0.051306669 0.16124953 0.96200007
-0.049474288 0.16124953 0.96200007
-0.047641907 0.16124953 0.96200007
-0.045809526 0.16124953 0.96200007
-0.043977145 0.16124953 0.96200007
-0.042144764 0.16124953 0.96200007
-0.040396191 0.16158476 0.96400005
-0.038560003 0.16158476 0.96400005
-0.036723811 0.16158476 0.96400005
-0.034887619 0.16158476 0.96400005
-0.033051431 0.16158476 0.96400005
-0.031215239 0.16158476 0.96400005
-0.029379049 0.16158476 0.96400005
-0.027542857 0.16158476 0.96400005
-0.025706667 0.16158476 0.96400005
-0.007474286 0.1644343 0.98100007
-0.0056057144 0.1644343 0.98100007
-0.0037485715 0.16493715 0.98400003
-0.0018742858 0.16493715 0.98400003
0 0.16493715 0.98400003
-0.52733338 0.19156191 1.13
-0.525181 0.19156191 1.13
-0.090422861 0.16765906 0.98900002
-0.088539049 0.16765906 0.98900002
-0.086480007 0.16732001 0.98700005
-0.08434286 0.16681144 0.98400003
-0.082468577 0.16681144 0.98400003
-0.080594286 0.16681144 0.98400003
-0.078480005 0.16630286 0.98100007
-0.076377146 0.1657943 0.97800004
-0.074514292 0.1657943 0.97800004
-0.072428577 0.16528572 0.97500002
-0.070426673 0.16494668 0.97300005
-0.068361908 0.1644381 0.97000003
-0.066514291 0.1644381 0.97000003
-0.064666666 0.1644381 0.97000003
-0.062624767 0.16392954 0.96700007
-0.060782861 0.16392954 0.96700007
-0.058940955 0.16392954 0.96700007
-0.057099048 0.16392954 0.96700007
-0.055085715 0.16342096 0.96400005
-0.053249527 0.16342096 0.96400005
-0.051413335 0.16342096 0.96400005
-0.049474288 0.16308191 0.96200007
-0.047641907 0.16308191 0.96200007
-0.045904763 0.16342096 0.96400005
-0.044068575 0.16342096 0.96400005
-0.042232383 0.16342096 0.96400005
-0.040396191 0.16342096 0.96400005
-0.038680002 0.16392954 0.96700007
-0.036838096 0.16392954 0.96700007
-0.034996193 0.16392954 0.96700007
-0.033051431 0.16342096 0.96400005
-0.031215239 0.16342096 0.96400005
-0.029379049 0.16342096 0.96400005
-0.027628573 0.16392954 0.96700007
-0.025786668 0.16392954 0.96700007
-0.023944763 0.16392954 0.96700007
-0.0056057144 0.16630286 0.98100007
-0.0037485715 0.16681144 0.98400003
-0.0018742858 0.16681144 0.98400003
-0.090422861 0.16954286 0.98900002
-0.088539049 0.16954286 0.98900002
-0.086480007 0.1692 0.98700005
-0.08434286 0.16868572 0.98400003
-0.082468577 0.16868572 0.98400003
-0.080594286 0.16868572 0.98400003
-0.078480005 0.16817144 0.98100007
-0.076377146 0.16765715 0.97800004
-0.074514292 0.16765715 0.97800004
-0.072428577 0.16714287 0.97500002
-0.070426673 0.16680001 0.97300005
-0.068361908 0.16628572 0.97000003
-0.066514291 0.16628572 0.97000003
-0.064666666 0.16628572 0.97000003
-0.062819049 0.16628572 0.97000003
-0.060782861 0.16577144 0.96700007
-0.058940955 0.16577144 0.96700007
-0.057099048 0.16577144 0.96700007
-0.055257145 0.16577144 0.96700007
-0.053249527 0.16525716 0.96400005
-0.051413335 0.16525716 0.96400005
-0.049577143 0.16525716 0.96400005
-0.047740955 0.16525716 0.96400005
-0.045904763 0.16525716 0.96400005
-0.044068575 0.16525716 0.96400005
-0.042363811 0.16577144 0.96700007
-0.040521905 0.16577144 0.96700007
-0.038680002 0.16577144 0.96700007
-0.036838096 0.16577144 0.96700007
-0.034996193 0.16577144 0.96700007
-0.033154286 0.16577144 0.96700007
-0.031215239 0.16525716 0.96400005
-0.029379049 0.16525716 0.96400005
-0.027628573 0.16577144 0.96700007
-0.025786668 0.16577144 0.96700007
-0.023944763 0.16577144 0.96700007
-0.0037485715 0.16868572 0.98400003
-0.0018838096 0.16954286 0.98900002
-0.088539049 0.17142667 0.98900002
-0.086480007 0.17108001 0.98700005
-0.08434286 0.17056 0.98400003
-0.082468577 0.17056 0.98400003
-0.080594286 0.17056 0.98400003
-0.078480005 0.17004001 0.98100007
-0.076377146 0.16952001 0.97800004
-0.074514292 0.16952001 0.97800004
-0.072428577 0.169 0.97500002
-0.07057143 0.169 0.97500002
-0.068573333 0.16865334 0.97300005
-0.066514291 0.16813333 0.97000003
-0.064666666 0.16813333 0.97000003
-0.062819049 0.16813333 0.97000003
-0.060971431 0.16813333 0.97000003
-0.058940955 0.16761334 0.96700007
-0.057099048 0.16761334 0.96700007
-0.055257145 0.16761334 0.96700007
-0.053415239 0.16761334 0.96700007
-0.051413335 0.16709334 0.96400005
-0.049577143 0.16709334 0.96400005
-0.047740955 0.16709334 0.96400005
-0.045904763 0.16709334 0.96400005
-0.044205718 0.16761334 0.96700007
-0.042363811 0.16761334 0.96700007
-0.040521905 0.16761334 0.96700007
-0.038680002 0.16761334 0.96700007
-0.036838096 0.16761334 0.96700007
-0.034996193 0.16761334 0.96700007
-0.033154286 0.16761334 0.96700007
-0.031215239 0.16709334 0.96400005
-0.029379049 0.16709334 0.96400005
-0.027628573 0.16761334 0.96700007
-0.025786668 0.16761334 0.96700007
-0.0018838096 0.17142667 0.98900002
0 0.17142667 0.98900002
-0.088539049 0.17331049 0.98900002
-0.086655244 0.17331049 0.98900002
-0.08434286 0.17243429 0.98400003
-0.082468577 0.17243429 0.98400003
-0.080594286 0.17243429 0.98400003
-0.078480005 0.17190857 0.98100007
-0.076377146 0.17138286 0.97800004
-0.074514292 0.17138286 0.97800004
-0.072651431 0.17138286 0.97800004
-0.07057143 0.17085715 0.97500002
-0.068573333 0.17050667 0.97300005
-0.066720001 0.17050667 0.97300005
-0.064666666 0.16998096 0.97000003
-0.062819049 0.16998096 0.97000003
-0.060971431 0.16998096 0.97000003
-0.058940955 0.16945525 0.96700007
-0.057099048 0.16945525 0.96700007
-0.055257145 0.16945525 0.96700007
-0.053415239 0.16945525 0.96700007
-0.051573336 0.16945525 0.96700007
-0.04973143 0.16945525 0.96700007
-0.047889527 0.16945525 0.96700007
-0.04604762 0.16945525 0.96700007
-0.044205718 0.16945525 0.96700007
-0.042363811 0.16945525 0.96700007
-0.040521905 0.16945525 0.96700007
-0.038680002 0.16945525 0.96700007
-0.036838096 0.16945525 0.96700007
-0.034996193 0.16945525 0.96700007
-0.033154286 0.16945525 0.96700007
-0.031312384 0.16945525 0.96700007
-0.029470477 0.16945525 0.96700007
-0.027628573 0.16945525 0.96700007
-0.025786668 0.16945525 0.96700007
-0.0018838096 0.17331049 0.98900002
0 0.17331049 0.98900002
-0.61055619 0.1937943 1.0940001
-0.60847241 0.1937943 1.0940001
-0.60638857 0.1937943 1.0940001
-0.60430479 0.1937943 1.0940001
-0.60222095 0.1937943 1.0940001
-0.088539049 0.17519429 0.98900002
-0.086655244 0.17519429 0.98900002
-0.084600002 0.17484 0.98700005
-0.082720004 0.17484 0.98700005
-0.080594286 0.17430858 0.98400003
-0.078480005 0.17377715 0.98100007
-0.076377146 0.17324573 0.97800004
-0.074514292 0.17324573 0.97800004
-0.072651431 0.17324573 0.97800004
-0.07057143 0.17271429 0.97500002
-0.068573333 0.17236 0.97300005
-0.066720001 0.17236 0.97300005
-0.064666666 0.17182858 0.97000003
-0.062819049 0.17182858 0.97000003
-0.060971431 0.17182858 0.97000003
-0.058940955 0.17129715 0.96700007
-0.057099048 0.17129715 0.96700007
-0.055257145 0.17129715 0.96700007
-0.053415239 0.17129715 0.96700007
-0.051573336 0.17129715 0.96700007
-0.04973143 0.17129715 0.96700007
-0.047889527 0.17129715 0.96700007
-0.04604762 0.17129715 0.96700007
-0.044205718 0.17129715 0.96700007
-0.042363811 0.17129715 0.96700007
-0.040521905 0.17129715 0.96700007
-0.038680002 0.17129715 0.96700007
-0.036838096 0.17129715 0.96700007
-0.034996193 0.17129715 0.96700007
-0.033154286 0.17129715 0.96700007
-0.031312384 0.17129715 0.96700007
-0.029470477 0.17129715 0.96700007
-0.027628573 0.17129715 0.96700007
-0.025786668 0.17129715 0.96700007
-0.61264002 0.1958781 1.0940001
-0.61055619 0.1958781 1.0940001
-0.60847241 0.1958781 1.0940001
-0.60417145 0.19516191 1.09
-0.60209525 0.19516191 1.09
-0.6000191 0.19516191 1.09
-0.60013717 0.1958781 1.0940001
-0.59805334 0.1958781 1.0940001
-0.59596956 0.1958781 1.0940001
-0.55163431 0.19641525 1.097
-0.5515486 0.19713144 1.1010001
-0.38865143 0.19641525 1.097
-0.38656193 0.19641525 1.097
-0.088539049 0.1770781 0.98900002
-0.086655244 0.1770781 0.98900002
-0.084600002 0.17672001 0.98700005
-0.082720004 0.17672001 0.98700005
-0.080594286 0.17618287 0.98400003
-0.078480005 0.17564572 0.98100007
-0.076611429 0.17564572 0.98100007
-0.074514292 0.17510858 0.97800004
-0.072651431 0.17510858 0.97800004
-0.07057143 0.17457144 0.97500002
-0.068573333 0.17421333 0.97300005
-0.066720001 0.17421333 0.97300005
-0.064666666 0.17367619 0.97000003
-0.062819049 0.17367619 0.97000003
-0.060971431 0.17367619 0.97000003
-0.05912381 0.17367619 0.97000003
-0.057099048 0.17313905 0.96700007
-0.055257145 0.17313905 0.96700007
-0.053415239 0.17313905 0.96700007
-0.051573336 0.17313905 0.96700007
-0.04973143 0.17313905 0.96700007
-0.047889527 0.17313905 0.96700007
-0.04604762 0.17313905 0.96700007
-0.044205718 0.17313905 0.96700007
-0.042363811 0.17313905 0.96700007
-0.040521905 0.17313905 0.96700007
-0.038680002 0.17313905 0.96700007
-0.036838096 0.17313905 0.96700007
-0.034996193 0.17313905 0.96700007
-0.033154286 0.17313905 0.96700007
-0.031312384 0.17313905 0.96700007
-0.029470477 0.17313905 0.96700007
-0.027628573 0.17313905 0.96700007
-0.61247623 0.1972381 1.09
-0.61264002 0.19796191 1.0940001
-0.60832381 0.1972381 1.09
-0.60624766 0.1972381 1.09
-0.60417145 0.1972381 1.09
-0.60209525 0.1972381 1.09
-0.6000191 0.1972381 1.09
-0.60013717 0.19796191 1.0940001
-0.59805334 0.19796191 1.0940001
-0.59596956 0.19796191 1.0940001
-0.59388572 0.19796191 1.0940001
-0.59180194 0.19796191 1.0940001
-0.55220956 0.19796191 1.0940001
-0.55012572 0.19796191 1.0940001
-0.54745525 0.19850478 1.097
-0.39636001 0.19922858 1.1010001
-0.39426288 0.19922858 1.1010001
-0.39074096 0.19850478 1.097
-0.38865143 0.19850478 1.097
-0.38656193 0.19850478 1.097
-0.090971433 0.18004763 0.99500006
-0.088539049 0.17896192 0.98900002
-0.086655244 0.17896192 0.98900002
-0.084600002 0.17860001 0.98700005
-0.082720004 0.17860001 0.98700005
-0.080840006 0.17860001 0.98700005
-0.078480005 0.17751428 0.98100007
-0.076611429 0.17751428 0.98100007
-0.074514292 0.17697144 0.97800004
-0.072651431 0.17697144 0.97800004
-0.07057143 0.17642857 0.97500002
-0.068573333 0.17606667 0.97300005
-0.066720001 0.17606667 0.97300005
-0.064666666 0.17552382 0.97000003
-0.062819049 0.17552382 0.97000003
-0.060971431 0.17552382 0.97000003
-0.05912381 0.17552382 0.97000003
-0.057099048 0.17498095 0.96700007
-0.055257145 0.17498095 0.96700007
-0.053415239 0.17498095 0.96700007
-0.051573336 0.17498095 0.96700007
-0.04973143 0.17498095 0.96700007
-0.047889527 0.17498095 0.96700007
-0.04604762 0.17498095 0.96700007
-0.044205718 0.17498095 0.96700007
-0.042363811 0.17498095 0.96700007
-0.040521905 0.17498095 0.96700007
-0.038680002 0.17498095 0.96700007
-0.036838096 0.17498095 0.96700007
-0.034996193 0.17498095 0.96700007
-0.033154286 0.17498095 0.96700007
-0.031312384 0.17498095 0.96700007
-0.029470477 0.17498095 0.96700007
-0.027714286 0.17552382 0.97000003
-0.0018838096 0.17896192 0.98900002
0 0.17896192 0.98900002
-0.61040002 0.1993143 1.09
-0.60832381 0.1993143 1.09
-0.60624766 0.1993143 1.09
-0.60417145 0.1993143 1.09
-0.60209525 0.1993143 1.09
-0.6000191 0.1993143 1.09
-0.59794289 0.1993143 1.09
-0.59586668 0.1993143 1.09
-0.59379047 0.1993143 1.09
-0.55955052 0.19821715 1.0840001
-0.55748576 0.19821715 1.0840001
-0.39492002 0.20059429 1.097
-0.39283049 0.20059429 1.097
-0.39074096 0.20059429 1.097
-0.38758859 0.20004572 1.0940001
-0.38550478 0.20004572 1.0940001
-0.38342097 0.20004572 1.0940001
-0.27506286 0.20004572 1.0940001
-0.27198097 0.1993143 1.09
-0.26990476 0.1993143 1.09
-0.090971433 0.18194287 0.99500006
-0.089076191 0.18194287 0.99500006
-0.086918101 0.18139429 0.99200004
-0.084771432 0.18084572 0.98900002
-0.08288762 0.18084572 0.98900002
-0.080840006 0.18048 0.98700005
-0.078480005 0.17938286 0.98100007
-0.076611429 0.17938286 0.98100007
-0.074514292 0.17883429 0.97800004
-0.072651431 0.17883429 0.97800004
-0.07057143 0.17828572 0.97500002
-0.068714291 0.17828572 0.97500002
-0.066720001 0.17792001 0.97300005
-0.064866669 0.17792001 0.97300005
-0.062819049 0.17737144 0.97000003
-0.060971431 0.17737144 0.97000003
-0.05912381 0.17737144 0.97000003
-0.057276193 0.17737144 0.97000003
-0.055428572 0.17737144 0.97000003
-0.053415239 0.17682287 0.96700007
-0.051573336 0.17682287 0.96700007
-0.049885716 0.17737144 0.97000003
-0.047889527 0.17682287 0.96700007
-0.04604762 0.17682287 0.96700007
-0.044205718 0.17682287 0.96700007
-0.042363811 0.17682287 0.96700007
-0.040521905 0.17682287 0.96700007
-0.038680002 0.17682287 0.96700007
-0.036838096 0.17682287 0.96700007
-0.034996193 0.17682287 0.96700007
-0.033154286 0.17682287 0.96700007
-0.031312384 0.17682287 0.96700007
-0.029561905 0.17737144 0.97000003
-0.027714286 0.17737144 0.97000003
-0.0056685717 0.18139429 0.99200004
-0.0018838096 0.18084572 0.98900002
0 0.18084572 0.98900002
-0.61040002 0.20139049 1.09
-0.60832381 0.20139049 1.09
-0.60624766 0.20139049 1.09
-0.60417145 0.20139049 1.09
-0.60209525 0.20139049 1.09
-0.6000191 0.20139049 1.09
-0.59794289 0.20139049 1.09
-0.59586668 0.20139049 1.09
-0.59379047 0.20139049 1.09
-0.56574476 0.20028192 1.0840001
-0.56367999 0.20028192 1.0840001
-0.56161529 0.20028192 1.0840001
-0.55955052 0.20028192 1.0840001
-0.55748576 0.20028192 1.0840001
-0.55542099 0.20028192 1.0840001
-0.39175621 0.20212953 1.0940001
-0.3896724 0.20212953 1.0940001
-0.38758859 0.20212953 1.0940001
-0.38409525 0.20139049 1.09
-0.38201907 0.20139049 1.09
-0.27198097 0.20139049 1.09
-0.26990476 0.20139049 1.09
-0.090971433 0.1838381 0.99500006
-0.089076191 0.1838381 0.99500006
-0.087180957 0.1838381 0.99500006
-0.085028574 0.18328382 0.99200004
-0.083139047 0.18328382 0.99200004
-0.081003815 0.18272953 0.98900002
-0.074514292 0.18069714 0.97800004
-0.072651431 0.18069714 0.97800004
-0.07057143 0.18014286 0.97500002
-0.068714291 0.18014286 0.97500002
-0.066720001 0.17977335 0.97300005
-0.064866669 0.17977335 0.97300005
-0.062819049 0.17921905 0.97000003
-0.060971431 0.17921905 0.97000003
-0.05912381 0.17921905 0.97000003
-0.057276193 0.17921905 0.97000003
-0.055428572 0.17921905 0.97000003
-0.053580955 0.17921905 0.97000003
-0.051733334 0.17921905 0.97000003
-0.049885716 0.17921905 0.97000003
-0.047889527 0.17866477 0.96700007
-0.04604762 0.17866477 0.96700007
-0.044205718 0.17866477 0.96700007
-0.042363811 0.17866477 0.96700007
-0.040521905 0.17866477 0.96700007
-0.038680002 0.17866477 0.96700007
-0.036838096 0.17866477 0.96700007
-0.034996193 0.17866477 0.96700007
-0.033154286 0.17866477 0.96700007
-0.031312384 0.17866477 0.96700007
-0.029561905 0.17921905 0.97000003
-0.027714286 0.17921905 0.97000003
-0.0056685717 0.18328382 0.99200004
-0.0037790479 0.18328382 0.99200004
-0.0018895239 0.18328382 0.99200004
0 0.18328382 0.99200004
-0.60043812 0.20290667 1.087
-0.59836763 0.20290667 1.087
-0.56780952 0.20234667 1.0840001
-0.56574476 0.20234667 1.0840001
-0.56367999 0.20234667 1.0840001
-0.56161529 0.20234667 1.0840001
-0.55955052 0.20234667 1.0840001
-0.38617143 0.20346667 1.09
-0.091245718 0.18629333 0.99800003
-0.089076191 0.18573333 0.99500006
-0.087180957 0.18573333 0.99500006
-0.085028574 0.18517335 0.99200004
-0.083139047 0.18517335 0.99200004
-0.081003815 0.18461335 0.98900002
-0.074742861 0.18312001 0.98100007
-0.072651431 0.18256001 0.97800004
-0.07057143 0.18200001 0.97500002
-0.068714291 0.18200001 0.97500002
-0.066720001 0.18162668 0.97300005
-0.064866669 0.18162668 0.97300005
-0.062819049 0.18106668 0.97000003
-0.060971431 0.18106668 0.97000003
-0.05912381 0.18106668 0.97000003
-0.057276193 0.18106668 0.97000003
-0.055428572 0.18106668 0.97000003
-0.053580955 0.18106668 0.97000003
-0.051733334 0.18106668 0.97000003
-0.049885716 0.18106668 0.97000003
-0.047889527 0.18050668 0.96700007
-0.04604762 0.18050668 0.96700007
-0.044205718 0.18050668 0.96700007
-0.042363811 0.18050668 0.96700007
-0.040521905 0.18050668 0.96700007
-0.038680002 0.18050668 0.96700007
-0.036838096 0.18050668 0.96700007
-0.034996193 0.18050668 0.96700007
-0.033154286 0.18050668 0.96700007
-0.031409524 0.18106668 0.97000003
-0.029561905 0.18106668 0.97000003
-0.0056685717 0.18517335 0.99200004
-0.0037790479 0.18517335 0.99200004
-0.0018895239 0.18517335 0.99200004
0 0.18517335 0.99200004
-0.089344762 0.18819429 0.99800003
-0.087180957 0.18762858 0.99500006
-0.085028574 0.18706286 0.99200004
-0.083139047 0.18706286 0.99200004
-0.081003815 0.18649715 0.98900002
-0.078960001 0.18612 0.98700005
-0.072651431 0.18442287 0.97800004
-0.07057143 0.18385714 0.97500002
-0.068714291 0.18385714 0.97500002
-0.066720001 0.18348001 0.97300005
-0.064866669 0.18348001 0.97300005
-0.062819049 0.18291429 0.97000003
-0.060971431 0.18291429 0.97000003
-0.05912381 0.18291429 0.97000003
-0.057276193 0.18291429 0.97000003
-0.055428572 0.18291429 0.97000003
-0.053580955 0.18291429 0.97000003
-0.051733334 0.18291429 0.97000003
-0.049885716 0.18291429 0.97000003
-0.048038095 0.18291429 0.97000003
-0.046190478 0.18291429 0.97000003
-0.044342861 0.18291429 0.97000003
-0.042363811 0.18234858 0.96700007
-0.040521905 0.18234858 0.96700007
-0.038800001 0.18291429 0.97000003
-0.036952384 0.18291429 0.97000003
-0.035104763 0.18291429 0.97000003
-0.033257145 0.18291429 0.97000003
-0.031409524 0.18291429 0.97000003
-0.029561905 0.18291429 0.97000003
-0.0056685717 0.18706286 0.99200004
-0.0037904764 0.18762858 0.99500006
-0.0018952382 0.18762858 0.99500006
-0.089344762 0.19009525 0.99800003
-0.087180957 0.18952382 0.99500006
-0.085028574 0.18895239 0.99200004
-0.083139047 0.18895239 0.99200004
-0.081003815 0.18838096 0.98900002
-0.078960001 0.18800001 0.98700005
-0.072651431 0.18628572 0.97800004
-0.070788577 0.18628572 0.97800004
-0.068714291 0.18571429 0.97500002
-0.066720001 0.18533334 0.97300005
-0.064866669 0.18533334 0.97300005
-0.062819049 0.18476191 0.97000003
-0.060971431 0.18476191 0.97000003
-0.05912381 0.18476191 0.97000003
-0.057276193 0.18476191 0.97000003
-0.055428572 0.18476191 0.97000003
-0.053580955 0.18476191 0.97000003
-0.051733334 0.18476191 0.97000003
-0.049885716 0.18476191 0.97000003
-0.047889527 0.18419048 0.96700007
-0.04604762 0.18419048 0.96700007
-0.044205718 0.18419048 0.96700007
-0.042363811 0.18419048 0.96700007
-0.040521905 0.18419048 0.96700007
-0.038800001 0.18476191 0.97000003
-0.036952384 0.18476191 0.97000003
-0.035104763 0.18476191 0.97000003
-0.033257145 0.18476191 0.97000003
-0.031409524 0.18476191 0.97000003
-0.029561905 0.18476191 0.97000003
-0.027714286 0.18476191 0.97000003
-0.0094190482 0.18838096 0.98900002
-0.0075352383 0.18838096 0.98900002
-0.0056685717 0.18895239 0.99200004
-0.0037790479 0.18895239 0.99200004
-0.0018952382 0.18952382 0.99500006
-0.087180957 0.19141905 0.99500006
-0.085028574 0.19084191 0.99200004
-0.083139047 0.19084191 0.99200004
-0.081003815 0.19026478 0.98900002
-0.078960001 0.18988001 0.98700005
-0.07684572 0.18930286 0.98400003
-0.072651431 0.18814857 0.97800004
-0.070788577 0.18814857 0.97800004
-0.068714291 0.18757144 0.97500002
-0.066857144 0.18757144 0.97500002
-0.064866669 0.18718667 0.97300005
-0.063013338 0.18718667 0.97300005
-0.061160002 0.18718667 0.97300005
-0.05912381 0.18660954 0.97000003
-0.057276193 0.18660954 0.97000003
-0.055428572 0.18660954 0.97000003
-0.053580955 0.18660954 0.97000003
-0.051733334 0.18660954 0.97000003
-0.049885716 0.18660954 0.97000003
-0.047889527 0.18603238 0.96700007
-0.04604762 0.18603238 0.96700007
-0.044205718 0.18603238 0.96700007
-0.042363811 0.18603238 0.96700007
-0.040521905 0.18603238 0.96700007
-0.038800001 0.18660954 0.97000003
-0.036952384 0.18660954 0.97000003
-0.035104763 0.18660954 0.97000003
-0.033257145 0.18660954 0.97000003
-0.031409524 0.18660954 0.97000003
-0.029561905 0.18660954 0.97000003
-0.027714286 0.18660954 0.97000003
-0.0094190482 0.19026478 0.98900002
-0.0075352383 0.19026478 0.98900002
-0.0056685717 0.19084191 0.99200004
-0.0037790479 0.19084191 0.99200004
-0.63780004 0.20652573 1.0630001
-0.63577527 0.20652573 1.0630001
-0.6337505 0.20652573 1.0630001
-0.41794288 0.20594287 1.0600001
-0.086918101 0.19273144 0.99200004
-0.085028574 0.19273144 0.99200004
-0.083139047 0.19273144 0.99200004
-0.081003815 0.19214858 0.98900002
-0.078960001 0.19176 0.98700005
-0.07684572 0.19117714 0.98400003
-0.074742861 0.19059429 0.98100007
-0.072651431 0.19001144 0.97800004
-0.070788577 0.19001144 0.97800004
-0.068714291 0.18942858 0.97500002
-0.066857144 0.18942858 0.97500002
-0.065000005 0.18942858 0.97500002
-0.05930667 0.18904001 0.97300005
-0.057276193 0.18845715 0.97000003
-0.055428572 0.18845715 0.97000003
-0.053580955 0.18845715 0.97000003
-0.051733334 0.18845715 0.97000003
-0.049885716 0.18845715 0.97000003
-0.048038095 0.18845715 0.97000003
-0.046190478 0.18845715 0.97000003
-0.044342861 0.18845715 0.97000003
-0.04249524 0.18845715 0.97000003
-0.040647622 0.18845715 0.97000003
-0.038800001 0.18845715 0.97000003
-0.036952384 0.18845715 0.97000003
-0.035104763 0.18845715 0.97000003
-0.033257145 0.18845715 0.97000003
-0.031409524 0.18845715 0.97000003
-0.029561905 0.18845715 0.97000003
-0.011302858 0.19214858 0.98900002
-0.0094190482 0.19214858 0.98900002
-0.0075352383 0.19214858 0.98900002
-0.0056685717 0.19273144 0.99200004
-0.0037790479 0.19273144 0.99200004
-0.63780004 0.20855048 1.0630001
-0.63577527 0.20855048 1.0630001
-0.63196194 0.20796192 1.0600001
-0.62994289 0.20796192 1.0600001
-0.086655244 0.19403239 0.98900002
-0.084771432 0.19403239 0.98900002
-0.08288762 0.19403239 0.98900002
-0.081003815 0.19403239 0.98900002
-0.078960001 0.19364001 0.98700005
-0.07684572 0.19305144 0.98400003
-0.074742861 0.19246286 0.98100007
-0.072874285 0.19246286 0.98100007
-0.070788577 0.1918743 0.97800004
-0.066857144 0.19128571 0.97500002
-0.065000005 0.19128571 0.97500002
-0.05930667 0.19089334 0.97300005
-0.057276193 0.19030477 0.97000003
-0.055428572 0.19030477 0.97000003
-0.053580955 0.19030477 0.97000003
-0.051733334 0.19030477 0.97000003
-0.049885716 0.19030477 0.97000003
-0.048038095 0.19030477 0.97000003
-0.046190478 0.19030477 0.97000003
-0.044342861 0.19030477 0.97000003
-0.04249524 0.19030477 0.97000003
-0.040647622 0.19030477 0.97000003
-0.038800001 0.19030477 0.97000003
-0.036952384 0.19030477 0.97000003
-0.035104763 0.19030477 0.97000003
-0.033257145 0.19030477 0.97000003
-0.031409524 0.19030477 0.97000003
-0.011302858 0.19403239 0.98900002
-0.0094190482 0.19403239 0.98900002
-0.0075352383 0.19403239 0.98900002
-0.0056514288 0.19403239 0.98900002
-0.0037790479 0.19462097 0.99200004
-0.63780004 0.21057525 1.0630001
-0.63577527 0.21057525 1.0630001
-0.63017339 0.20938668 1.057
-0.62816 0.20938668 1.057
-0.62614667 0.20938668 1.057
-0.6223619 0.20879239 1.054
-0.50993526 0.20879239 1.054
-0.50792766 0.20879239 1.054
-0.086655244 0.19591619 0.98900002
-0.084771432 0.19591619 0.98900002
-0.08288762 0.19591619 0.98900002
-0.081003815 0.19591619 0.98900002
-0.078960001 0.19552001 0.98700005
-0.07684572 0.19492573 0.98400003
-0.074742861 0.19433144 0.98100007
-0.072874285 0.19433144 0.98100007
-0.070788577 0.19373715 0.97800004
-0.068925716 0.19373715 0.97800004
-0.067062862 0.19373715 0.97800004
-0.065200001 0.19373715 0.97800004
-0.063142858 0.19314286 0.97500002
-0.061285716 0.19314286 0.97500002
-0.05930667 0.19274667 0.97300005
-0.057453334 0.19274667 0.97300005
-0.055600002 0.19274667 0.97300005
-0.053580955 0.19215238 0.97000003
-0.051733334 0.19215238 0.97000003
-0.038800001 0.19215238 0.97000003
-0.036952384 0.19215238 0.97000003
-0.011302858 0.19591619 0.98900002
-0.0094190482 0.19591619 0.98900002
-0.0075352383 0.19591619 0.98900002
-0.0056514288 0.19591619 0.98900002
-0.0037676191 0.19591619 0.98900002
-0.63017339 0.2114 1.057
-0.62816 0.2114 1.057
-0.62614667 0.2114 1.057
-0.6223619 0.21080001 1.054
-0.62035429 0.21080001 1.054
-0.51200002 0.21000001 1.0500001
-0.50999999 0.21000001 1.0500001
-0.50800002 0.21000001 1.0500001
-0.50600004 0.21000001 1.0500001
-0.50400001 0.21000001 1.0500001
-0.50200003 0.21000001 1.0500001
-0.086655244 0.19780001 0.98900002
-0.084771432 0.19780001 0.98900002
-0.08288762 0.19780001 0.98900002
-0.081003815 0.19780001 0.98900002
-0.078960001 0.1974 0.98700005
-0.07684572 0.19680001 0.98400003
-0.074742861 0.19620001 0.98100007
-0.072874285 0.19620001 0.98100007
-0.070788577 0.1956 0.97800004
-0.068925716 0.1956 0.97800004
-0.067062862 0.1956 0.97800004
-0.065200001 0.1956 0.97800004
-0.063142858 0.19500001 0.97500002
-0.061285716 0.19500001 0.97500002
-0.059428573 0.19500001 0.97500002
-0.057453334 0.1946 0.97300005
-0.055600002 0.1946 0.97300005
-0.05374667 0.1946 0.97300005
-0.011302858 0.19780001 0.98900002
-0.0094190482 0.19780001 0.98900002
-0.0075352383 0.19780001 0.98900002
-0.0056514288 0.19780001 0.98900002
-0.0037676191 0.19780001 0.98900002
-0.62600005 0.21200001 1.0500001
-0.62400001 0.21200001 1.0500001
-0.62200004 0.21200001 1.0500001
-0.62 0.21200001 1.0500001
-0.57867432 0.21078858 1.044
-0.57668573 0.21078858 1.044
-0.57469714 0.21078858 1.044
-0.52347428 0.21018286 1.041
-0.52149147 0.21018286 1.041
-0.52100575 0.21078858 1.044
-0.51901716 0.21078858 1.044
-0.51200002 0.21200001 1.0500001
-0.50999999 0.21200001 1.0500001
-0.50800002 0.21200001 1.0500001
-0.50600004 0.21200001 1.0500001
-0.50400001 0.21200001 1.0500001
-0.50200003 0.21200001 1.0500001
-0.5 0.21200001 1.0500001
-0.088539049 0.19968382 0.98900002
-0.086655244 0.19968382 0.98900002
-0.084771432 0.19968382 0.98900002
-0.08288762 0.19968382 0.98900002
-0.081003815 0.19968382 0.98900002
-0.078960001 0.19928001 0.98700005
-0.07684572 0.19867429 0.98400003
-0.074742861 0.19806857 0.98100007
-0.072874285 0.19806857 0.98100007
-0.070788577 0.19746287 0.97800004
-0.068925716 0.19746287 0.97800004
-0.067062862 0.19746287 0.97800004
-0.065200001 0.19746287 0.97800004
-0.063142858 0.19685715 0.97500002
-0.061285716 0.19685715 0.97500002
-0.059428573 0.19685715 0.97500002
-0.057453334 0.19645335 0.97300005
-0.051893335 0.19645335 0.97300005
-0.050040003 0.19645335 0.97300005
-0.011302858 0.19968382 0.98900002
-0.0094190482 0.19968382 0.98900002
-0.0075352383 0.19968382 0.98900002
-0.0056514288 0.19968382 0.98900002
-0.0037676191 0.19968382 0.98900002
-0.62221718 0.21338858 1.0470001
-0.62022287 0.21338858 1.0470001
-0.57668573 0.21277715 1.044
-0.52592003 0.21155429 1.0380001
-0.52394289 0.21155429 1.0380001
-0.52347428 0.21216573 1.041
-0.52149147 0.21216573 1.041
-0.5195086 0.21216573 1.041
-0.51752573 0.21216573 1.041
-0.51702857 0.21277715 1.044
-0.51504004 0.21277715 1.044
-0.50800002 0.214 1.0500001
-0.088539049 0.20156762 0.98900002
-0.086655244 0.20156762 0.98900002
-0.084771432 0.20156762 0.98900002
-0.083139047 0.20217906 0.99200004
-0.081003815 0.20156762 0.98900002
-0.078960001 0.20116001 0.98700005
-0.07684572 0.20054857 0.98400003
-0.074742861 0.19993715 0.98100007
-0.072874285 0.19993715 0.98100007
-0.071005717 0.19993715 0.98100007
-0.068925716 0.19932573 0.97800004
-0.067062862 0.19932573 0.97800004
-0.065200001 0.19932573 0.97800004
-0.063337147 0.19932573 0.97800004
-0.061285716 0.19871429 0.97500002
-0.059428573 0.19871429 0.97500002
-0.057453334 0.19830668 0.97300005
-0.055600002 0.19830668 0.97300005
-0.05374667 0.19830668 0.97300005
-0.051893335 0.19830668 0.97300005
-0.011302858 0.20156762 0.98900002
-0.0094476193 0.20217906 0.99200004
-0.0075580957 0.20217906 0.99200004
-0.0056514288 0.20156762 0.98900002
-0.0037676191 0.20156762 0.98900002
-0.52394289 0.21353143 1.0380001
-0.52196574 0.21353143 1.0380001
-0.5199886 0.21353143 1.0380001
-0.5195086 0.21414858 1.041
-0.51752573 0.21414858 1.041
-0.51554286 0.21414858 1.041
-0.081003815 0.20345144 0.98900002
-0.078960001 0.20304 0.98700005
-0.07684572 0.20242286 0.98400003
-0.074742861 0.20180573 0.98100007
-0.072874285 0.20180573 0.98100007
-0.071005717 0.20180573 0.98100007
-0.068925716 0.20118858 0.97800004
-0.067062862 0.20118858 0.97800004
-0.065200001 0.20118858 0.97800004
-0.063337147 0.20118858 0.97800004
-0.06147429 0.20118858 0.97800004
-0.059428573 0.20057143 0.97500002
-0.057453334 0.20016001 0.97300005
-0.055600002 0.20016001 0.97300005
-0.05374667 0.20016001 0.97300005
-0.035285715 0.20057143 0.97500002
-0.033428572 0.20057143 0.97500002
-0.61484194 0.21343239 1.028
-0.61288381 0.21343239 1.028
-0.61092573 0.21343239 1.028
-0.60896766 0.21343239 1.028
-0.60700953 0.21343239 1.028
-0.60505146 0.21343239 1.028
-0.60309333 0.21343239 1.028
-0.52586287 0.21467811 1.034
-0.52389336 0.21467811 1.034
-0.52192384 0.21467811 1.034
-0.52196574 0.21550858 1.0380001
-0.5199886 0.21550858 1.0380001
-0.51801145 0.21550858 1.0380001
-0.51603431 0.21550858 1.0380001
-0.081003815 0.20533524 0.98900002
-0.07684572 0.20429716 0.98400003
-0.072874285 0.20367429 0.98100007
-0.071005717 0.20367429 0.98100007
-0.069137149 0.20367429 0.98100007
-0.067062862 0.20305143 0.97800004
-0.065200001 0.20305143 0.97800004
-0.063337147 0.20305143 0.97800004
-0.06147429 0.20305143 0.97800004
-0.059428573 0.20242858 0.97500002
-0.05757143 0.20242858 0.97500002
-0.055714287 0.20242858 0.97500002
-0.053857144 0.20242858 0.97500002
-0.051893335 0.20201334 0.97300005
-0.050040003 0.20201334 0.97300005
-0.048186667 0.20201334 0.97300005
-0.046333335 0.20201334 0.97300005
-0.044571429 0.20242858 0.97500002
-0.040773336 0.20201334 0.97300005
-0.03892 0.20201334 0.97300005
-0.037142858 0.20242858 0.97500002
-0.035285715 0.20242858 0.97500002
-0.033428572 0.20242858 0.97500002
-0.61109525 0.21476191 1.0250001
-0.60113525 0.21539049 1.028
-0.52433717 0.21601905 1.031
-0.52237338 0.21601905 1.031
-0.52040952 0.21601905 1.031
-0.51995432 0.21664762 1.034
-0.5199886 0.21748573 1.0380001
-0.51801145 0.21748573 1.0380001
-0.51603431 0.21748573 1.0380001
-0.44448763 0.21539049 1.028
-0.44252953 0.21539049 1.028
-0.071005717 0.20554286 0.98100007
-0.069137149 0.20554286 0.98100007
-0.067062862 0.20491429 0.97800004
-0.065200001 0.20491429 0.97800004
-0.063337147 0.20491429 0.97800004
-0.06147429 0.20491429 0.97800004
-0.059428573 0.20428573 0.97500002
-0.05757143 0.20428573 0.97500002
-0.055714287 0.20428573 0.97500002
-0.053857144 0.20428573 0.97500002
-0.050040003 0.20386668 0.97300005
-0.048186667 0.20386668 0.97300005
-0.046428572 0.20428573 0.97500002
-0.044571429 0.20428573 0.97500002
-0.042714287 0.20428573 0.97500002
-0.040857144 0.20428573 0.97500002
-0.039000001 0.20428573 0.97500002
-0.037142858 0.20428573 0.97500002
-0.035285715 0.20428573 0.97500002
-0.033428572 0.20428573 0.97500002
-0.031571429 0.20428573 0.97500002
-0.6151467 0.21608001 1.0220001
-0.61320001 0.21608001 1.0220001
-0.59938097 0.21671429 1.0250001
-0.59568 0.21608001 1.0220001
-0.59373337 0.21608001 1.0220001
-0.52040952 0.21798286 1.031
-0.44644573 0.21734858 1.028
-0.44319049 0.21671429 1.0250001
-0.44123811 0.21671429 1.0250001
-0.44057146 0.21734858 1.028
-0.091493338 0.21608001 1.0220001
-0.088232383 0.21290858 1.0070001
-0.069137149 0.20741144 0.98100007
-0.067268573 0.20741144 0.98100007
-0.065200001 0.20677716 0.97800004
-0.063337147 0.20677716 0.97800004
-0.06147429 0.20677716 0.97800004
-0.059428573 0.20614286 0.97500002
-0.05757143 0.20614286 0.97500002
-0.055714287 0.20614286 0.97500002
-0.053857144 0.20614286 0.97500002
-0.052000001 0.20614286 0.97500002
-0.050142858 0.20614286 0.97500002
-0.048285715 0.20614286 0.97500002
-0.046428572 0.20614286 0.97500002
-0.044571429 0.20614286 0.97500002
-0.042714287 0.20614286 0.97500002
-0.040857144 0.20614286 0.97500002
-0.039000001 0.20614286 0.97500002
-0.037142858 0.20614286 0.97500002
-0.035285715 0.20614286 0.97500002
-0.033428572 0.20614286 0.97500002
-0.031571429 0.20614286 0.97500002
-0.61709338 0.21802667 1.0220001
-0.6151467 0.21802667 1.0220001
-0.59938097 0.21866667 1.0250001
-0.59393144 0.21738668 1.0190001
-0.44904763 0.21866667 1.0250001
-0.44514287 0.21866667 1.0250001
-0.44319049 0.21866667 1.0250001
-0.44123811 0.21866667 1.0250001
-0.43928573 0.21866667 1.0250001
-0.090956196 0.21674667 1.016
-0.088232383 0.21482667 1.0070001
-0.086057149 0.21418667 1.0040001
-0.065400004 0.20928001 0.98100007
-0.059428573 0.208 0.97500002
-0.05757143 0.208 0.97500002
-0.039000001 0.208 0.97500002
-0.033428572 0.208 0.97500002
-0.59411812 0.21868192 1.016
-0.44189334 0.21997334 1.0220001
-0.093165718 0.21932763 1.0190001
-0.090956196 0.21868192 1.016
-0.088232383 0.21674477 1.0070001
-0.086057149 0.21609905 1.0040001
-0.60152 0.22192001 1.0220001
-0.59411812 0.22061715 1.016
-0.54694098 0.21801144 1.0040001
-0.44189334 0.22192001 1.0220001
-0.092891432 0.22061715 1.016
-0.090419054 0.21931429 1.01
-0.087969527 0.21801144 1.0040001
-0.086057149 0.21801144 1.0040001
-0.083641909 0.21670859 0.99800003
-0.59411812 0.22255239 1.016
-0.55317718 0.21860953 0.99800003
-0.54203814 0.21795239 0.99500006
-0.094546668 0.22189525 1.013
-0.092342861 0.22123811 1.01
-0.090150483 0.22058097 1.0070001
-0.087969527 0.21992382 1.0040001
-0.086057149 0.21992382 1.0040001
-0.083893336 0.21926667 1.001
-0.54014289 0.21984763 0.99500006
-0.54311621 0.22183619 1.0040001
-0.54120386 0.22183619 1.0040001
-0.094266668 0.22316191 1.01
-0.092068575 0.22249906 1.0070001
-0.089881904 0.22183619 1.0040001
-0.087969527 0.22183619 1.0040001
-0.0858 0.22117335 1.001
-0.083893336 0.22117335 1.001
-0.08149524 0.21984763 0.99500006
-0.079360001 0.21918477 0.99200004
-0.04657143 0.21609144 0.97800004
-0.044708572 0.21609144 0.97800004
-0.042845715 0.21609144 0.97800004
-0.040982857 0.21609144 0.97800004
-0.03912 0.21609144 0.97800004
-0.54014289 0.22174287 0.99500006
-0.53958666 0.22308001 1.001
-0.20844953 0.22374858 1.0040001
-0.20653716 0.22374858 1.0040001
-0.20462477 0.22374858 1.0040001
-0.089613333 0.22308001 1.001
-0.08770667 0.22308001 1.001
-0.0858 0.22308001 1.001
-0.083641909 0.22241144 0.99800003
-0.081740953 0.22241144 0.99800003
-0.079360001 0.2210743 0.99200004
-0.077470481 0.2210743 0.99200004
-0.059611432 0.21795429 0.97800004
-0.057748575 0.21795429 0.97800004
-0.055885717 0.21795429 0.97800004
-0.05402286 0.21795429 0.97800004
-0.052160002 0.21795429 0.97800004
-0.050297145 0.21795429 0.97800004
-0.048434287 0.21795429 0.97800004
-0.04657143 0.21795429 0.97800004
-0.044708572 0.21795429 0.97800004
-0.042845715 0.21795429 0.97800004
-0.040982857 0.21795429 0.97800004
-0.03912 0.21795429 0.97800004
-0.037257146 0.21795429 0.97800004
-0.018800002 0.21996 0.98700005
-0.011371429 0.22174287 0.99500006
-0.0094761904 0.22174287 0.99500006
-0.0076038097 0.22241144 0.99800003
-0.0057028574 0.22241144 0.99800003
-0.089344762 0.22431239 0.99800003
-0.087443814 0.22431239 0.99800003
-0.085542858 0.22431239 0.99800003
-0.083641909 0.22431239 0.99800003
-0.081740953 0.22431239 0.99800003
-0.079600006 0.2236381 0.99500006
-0.077470481 0.22296382 0.99200004
-0.075580955 0.22296382 0.99200004
-0.073468573 0.22228953 0.98900002
-0.071584761 0.22228953 0.98900002
-0.069560006 0.22184001 0.98700005
-0.06166286 0.22049144 0.98100007
-0.059611432 0.21981715 0.97800004
-0.057748575 0.21981715 0.97800004
-0.055885717 0.21981715 0.97800004
-0.05402286 0.21981715 0.97800004
-0.052160002 0.21981715 0.97800004
-0.050297145 0.21981715 0.97800004
-0.048434287 0.21981715 0.97800004
-0.04657143 0.21981715 0.97800004
-0.044708572 0.21981715 0.97800004
-0.042845715 0.21981715 0.97800004
-0.040982857 0.21981715 0.97800004
-0.03912 0.21981715 0.97800004
-0.037257146 0.21981715 0.97800004
-0.035394289 0.21981715 0.97800004
-0.033634286 0.22049144 0.98100007
-0.031765714 0.22049144 0.98100007
-0.029897144 0.22049144 0.98100007
-0.028028572 0.22049144 0.98100007
-0.026160002 0.22049144 0.98100007
-0.024365716 0.22116572 0.98400003
-0.022491429 0.22116572 0.98400003
-0.018800002 0.22184001 0.98700005
-0.013226667 0.22296382 0.99200004
-0.011371429 0.2236381 0.99500006
-0.0094761904 0.2236381 0.99500006
-0.0075809527 0.2236381 0.99500006
-0.0056857145 0.2236381 0.99500006
-0.0038019049 0.22431239 0.99800003
-0.0019066668 0.22498667 1.001
0 0.22498667 1.001
-0.42762479 0.22417334 0.98900002
-0.42574096 0.22417334 0.98900002
-0.42385715 0.22417334 0.98900002
-0.085285716 0.22553334 0.99500006
-0.083390482 0.22553334 0.99500006
-0.08149524 0.22553334 0.99500006
-0.079600006 0.22553334 0.99500006
-0.077470481 0.22485334 0.99200004
-0.075580955 0.22485334 0.99200004
-0.073468573 0.22417334 0.98900002
-0.071584761 0.22417334 0.98900002
-0.069560006 0.22372001 0.98700005
-0.067680001 0.22372001 0.98700005
-0.0656 0.22304001 0.98400003
-0.063725717 0.22304001 0.98400003
-0.06166286 0.22236001 0.98100007
-0.059611432 0.22168002 0.97800004
-0.057748575 0.22168002 0.97800004
-0.055885717 0.22168002 0.97800004
-0.05402286 0.22168002 0.97800004
-0.052160002 0.22168002 0.97800004
-0.050297145 0.22168002 0.97800004
-0.048434287 0.22168002 0.97800004
-0.04657143 0.22168002 0.97800004
-0.044708572 0.22168002 0.97800004
-0.042845715 0.22168002 0.97800004
-0.040982857 0.22168002 0.97800004
-0.03912 0.22168002 0.97800004
-0.037257146 0.22168002 0.97800004
-0.035502858 0.22236001 0.98100007
-0.033634286 0.22236001 0.98100007
-0.031765714 0.22236001 0.98100007
-0.029897144 0.22236001 0.98100007
-0.028028572 0.22236001 0.98100007
-0.026240001 0.22304001 0.98400003
-0.024365716 0.22304001 0.98400003
-0.022491429 0.22304001 0.98400003
-0.020680001 0.22372001 0.98700005
-0.018800002 0.22372001 0.98700005
-0.016954286 0.22417334 0.98900002
-0.015070477 0.22417334 0.98900002
-0.013226667 0.22485334 0.99200004
-0.011371429 0.22553334 0.99500006
-0.0094761904 0.22553334 0.99500006
-0.0075809527 0.22553334 0.99500006
-0.0056857145 0.22553334 0.99500006
-0.0037904764 0.22553334 0.99500006
-0.0019009524 0.22621334 0.99800003
-0.42197335 0.22605716 0.98900002
-0.37600002 0.2256 0.98700005
-0.085028574 0.22674286 0.99200004
-0.083139047 0.22674286 0.99200004
-0.081249528 0.22674286 0.99200004
-0.079360001 0.22674286 0.99200004
-0.077470481 0.22674286 0.99200004
-0.075352386 0.22605716 0.98900002
-0.073468573 0.22605716 0.98900002
-0.071584761 0.22605716 0.98900002
-0.069700956 0.22605716 0.98900002
-0.067680001 0.2256 0.98700005
-0.065800004 0.2256 0.98700005
-0.063725717 0.2249143 0.98400003
-0.06166286 0.22422858 0.98100007
-0.059794288 0.22422858 0.98100007
-0.057925716 0.22422858 0.98100007
-0.056057144 0.22422858 0.98100007
-0.05402286 0.22354287 0.97800004
-0.052160002 0.22354287 0.97800004
-0.050297145 0.22354287 0.97800004
-0.048434287 0.22354287 0.97800004
-0.04657143 0.22354287 0.97800004
-0.044708572 0.22354287 0.97800004
-0.042845715 0.22354287 0.97800004
-0.040982857 0.22354287 0.97800004
-0.03912 0.22354287 0.97800004
-0.037257146 0.22354287 0.97800004
-0.035502858 0.22422858 0.98100007
-0.033634286 0.22422858 0.98100007
-0.031765714 0.22422858 0.98100007
-0.029897144 0.22422858 0.98100007
-0.028028572 0.22422858 0.98100007
-0.026240001 0.2249143 0.98400003
-0.024365716 0.2249143 0.98400003
-0.022491429 0.2249143 0.98400003
-0.020617144 0.2249143 0.98400003
-0.018800002 0.2256 0.98700005
-0.016954286 0.22605716 0.98900002
-0.015116191 0.22674286 0.99200004
-0.013226667 0.22674286 0.99200004
-0.011371429 0.22742859 0.99500006
-0.0094761904 0.22742859 0.99500006
-0.0075580957 0.22674286 0.99200004
-0.0056685717 0.22674286 0.99200004
-0.0037790479 0.22674286 0.99200004
-0.42676002 0.22748001 0.98700005
-0.42488003 0.22748001 0.98700005
-0.38048002 0.22678858 0.98400003
-0.37860572 0.22678858 0.98400003
-0.37788001 0.22748001 0.98700005
-0.37600002 0.22748001 0.98700005
-0.37412003 0.22748001 0.98700005
-0.3729943 0.22794096 0.98900002
-0.08288762 0.22794096 0.98900002
-0.081003815 0.22794096 0.98900002
-0.079120003 0.22794096 0.98900002
-0.07723619 0.22794096 0.98900002
-0.075352386 0.22794096 0.98900002
-0.073468573 0.22794096 0.98900002
-0.071440004 0.22748001 0.98700005
-0.069560006 0.22748001 0.98700005
-0.067680001 0.22748001 0.98700005
-0.0656 0.22678858 0.98400003
-0.063725717 0.22678858 0.98400003
-0.06166286 0.22609715 0.98100007
-0.059611432 0.22540572 0.97800004
-0.057748575 0.22540572 0.97800004
-0.056057144 0.22609715 0.98100007
-0.054188572 0.22609715 0.98100007
-0.052160002 0.22540572 0.97800004
-0.050297145 0.22540572 0.97800004
-0.048434287 0.22540572 0.97800004
