# .PCD v0.7 - Point Cloud Data file format
VERSION 0.7
FIELDS x y z
SIZE 4 4 4
TYPE F F F
COUNT 1 1 1
WIDTH 129
HEIGHT 1
VIEWPOINT 0 0 0 1 0 0 0
POINTS 129
DATA ascii
0.91500002 -0.0049999999 -0.245
0.92500001 -0.015 -0.245
0.935 -0.0049999999 -0.245
0.90499997 -0.0049999999 -0.235
0.91500002 -0.0049999999 -0.235
0.90499997 -0.0049999999 -0.22499999
0.91500002 -0.0049999999 -0.22499999
0.90499997 -0.0049999999 -0.215
0.91500002 -0.0049999999 -0.205
0.935 -0.025 -0.22499999
0.92500001 -0.015 -0.235
0.935 -0.015 -0.235
0.935 -0.0049999999 -0.235
0.935 -0.015 -0.22499999
0.92500001 -0.0049999999 -0.22499999
0.935 -0.0049999999 -0.22499999
0.94499999 -0.0049999999 -0.22499999
0.935 -0.015 -0.215
0.92500001 -0.0049999999 -0.215
0.935 -0.0049999999 -0.215
0.935 -0.015 -0.205
0.92500001 -0.0049999999 -0.205
0.935 -0.0049999999 -0.205
0.94499999 -0.015 -0.215
0.94499999 -0.015 -0.205
0.94499999 -0.0049999999 -0.205
0.92500001 -0.0049999999 -0.19499999
0.79500002 0.015 -0.36500001
0.79500002 0.035 -0.36500001
0.755 0.015 -0.33500001
0.79500002 0.015 -0.35499999
0.79500002 0.025 -0.35499999
0.79500002 0.035 -0.35499999
0.79500002 0.015 -0.33500001
0.76499999 0.035 -0.32499999
0.80500001 0.015 -0.36500001
0.80500001 0.025 -0.36500001
0.80500001 0.035 -0.35499999
0.80500001 0.035 -0.345
0.755 0.015 -0.315
0.76499999 0.015 -0.30500001
0.76499999 0.025 -0.30500001
0.78500003 0.035 -0.315
0.77499998 0.015 -0.29499999
0.77499998 0.015 -0.285
0.78500003 0.025 -0.29499999
0.77499998 0.045000002 -0.30500001
0.755 0.015 -0.27500001
0.755 0.015 -0.26499999
0.745 0.025 -0.26499999
0.755 0.015 -0.255
0.745 0.025 -0.255
0.745 0.025 -0.245
0.755 0.025 -0.245
0.77499998 0.015 -0.26499999
0.76499999 0.015 -0.255
0.77499998 0.015 -0.255
0.76499999 0.015 -0.245
0.77499998 0.015 -0.245
0.76499999 0.025 -0.255
0.76499999 0.035 -0.255
0.77499998 0.035 -0.255
0.76499999 0.025 -0.245
0.76499999 0.035 -0.245
0.77499998 0.035 -0.245
0.77499998 0.045000002 -0.26499999
0.77499998 0.045000002 -0.255
0.745 0.025 -0.235
0.755 0.025 -0.235
0.755 0.035 -0.235
0.745 0.025 -0.22499999
0.755 0.025 -0.22499999
0.755 0.035 -0.22499999
0.755 0.025 -0.215
0.76499999 0.015 -0.235
0.77499998 0.015 -0.235
0.76499999 0.015 -0.22499999
0.77499998 0.015 -0.22499999
0.78500003 0.015 -0.235
0.76499999 0.025 -0.235
0.76499999 0.035 -0.235
0.77499998 0.035 -0.235
0.76499999 0.025 -0.22499999
0.77499998 0.025 -0.22499999
0.76499999 0.035 -0.22499999
0.77499998 0.035 -0.22499999
0.76499999 0.015 -0.215
0.77499998 0.015 -0.215
0.76499999 0.015 -0.205
0.77499998 0.015 -0.205
0.76499999 0.025 -0.215
0.77499998 0.025 -0.215
0.77499998 0.035 -0.215
0.78500003 0.025 -0.215
0.755 0.015 -0.19499999
0.76499999 0.015 -0.19499999
0.77499998 0.015 -0.185
0.79500002 0.035 -0.19499999
0.76499999 0.015 -0.16500001
0.79500002 0.035 -0.16500001
0.89499998 0.0049999999 -0.245
0.92500001 0.0049999999 -0.245
0.80500001 0.015 -0.16500001
0.935 0.0049999999 -0.235
0.935 0.0049999999 -0.22499999
0.92500001 0.015 -0.22499999
0.94499999 0.0049999999 -0.22499999
0.94499999 0.0049999999 -0.215
0.76499999 0.025 -0.155
0.79500002 0.035 -0.155
0.80500001 0.015 -0.155
0.80500001 0.015 -0.145
0.815 0.015 -0.145
0.80500001 0.035 -0.155
0.80500001 0.025 -0.145
0.80500001 0.035 -0.145
0.815 0.015 -0.13500001
0.82499999 0.015 -0.125
0.815 0.025 -0.13500001
0.815 0.035 -0.13500001
0.80500001 0.045000002 -0.155
0.84500003 0.025 -0.064999998
0.84500003 0.035 -0.064999998
0.85500002 0.035 -0.064999998
0.84500003 0.035 -0.055
0.85500002 0.035 -0.055
0.84500003 0.045000002 -0.075000003
0.875 0.045000002 -0.055
0.97500002 0.015 -0.035
