# .PCD v0.7 - Point Cloud Data file format
VERSION 0.7
FIELDS x y z rgb
SIZE 4 4 4 4
TYPE F F F F
COUNT 1 1 1 1
WIDTH 1325
HEIGHT 1
VIEWPOINT 0 0 0 1 0 0 0
POINTS 1325
DATA ascii
-0.83444846 0.59386849 0.25444657 0
-0.83125883 0.60665774 0.2588535 0
-0.82281762 0.60400414 0.26873159 0
-0.81756127 0.61076665 0.27529407 0
-0.80719346 0.60206103 0.28716034 0
-0.80066329 0.60484767 0.29503876 0
-0.79578829 0.61273074 0.30120397 0
-0.78549767 0.60372043 0.31296378 0
-0.7818296 0.61539626 0.31788355 0
-0.77109486 0.60460973 0.33008313 0
-0.76525503 0.60933566 0.33723778 0
-0.7576769 0.6083858 0.34617597 0
-0.75124377 0.61111045 0.35393631 0
-0.74544311 0.61592126 0.36104858 0
-0.73348004 0.59990382 0.37444878 0
-0.72921717 0.60977435 0.37998545 0
-0.72227848 0.61052203 0.38824844 0
-0.7143243 0.6076448 0.39753807 0
-0.70555025 0.6017077 0.40765011 0
-0.69961834 0.60572267 0.41487932 0
-0.69432169 0.61204648 0.42146814 0
-0.68678969 0.61023545 0.43030941 0
-0.68025643 0.61199927 0.43814147 0
-0.67131525 0.60467505 0.44838393 0
-0.66272587 0.59842181 0.45826161 0
-0.65601301 0.59914994 0.46625602 0
-0.65100378 0.60644984 0.4725517 0
-0.64354169 0.60417008 0.48128712 0
-0.63562781 0.59994102 0.49046314 0
-0.63129699 0.61001801 0.49609041 0
-0.62844008 0.62631202 0.5002743 0
-0.80637532 -0.59539866 0.25454718 0
-0.80201465 -0.59316838 0.25968474 0
-0.79859865 -0.58967435 0.26379603 0
-0.79178029 -0.59093225 0.27159363 0
-0.78316599 -0.5948081 0.2813316 0
-0.78168696 -0.58872724 0.28333825 0
-0.77582794 -0.58886909 0.29008532 0
-0.76751077 -0.59262598 0.2994867 0
-0.75864905 -0.59731042 0.30946982 0
-0.75596052 -0.59311056 0.3127774 0
-0.74762785 -0.59724319 0.32217801 0
-0.74677348 -0.5903846 0.32350326 0
-0.74118131 -0.59059286 0.32993937 0
-0.73354489 -0.59396982 0.33857483 0
-0.72939992 -0.59214306 0.34344363 0
-0.72267956 -0.59431934 0.35108268 0
-0.71689057 -0.59515476 0.35771465 0
-0.71007031 -0.59768665 0.36545122 0
-0.70908123 -0.59112072 0.36691725 0
-0.70564473 -0.58840728 0.37101328 0
-0.69579446 -0.59601355 0.38199103 0
-0.69253612 -0.59313905 0.38588965 0
-0.6877473 -0.59278011 0.39142787 0
-0.68131256 -0.59519029 0.39872611 0
-0.677836 -0.5927918 0.40285289 0
-0.67384952 -0.59127009 0.40752375 0
-0.66801214 -0.59291184 0.41417134 0
-0.66117114 -0.59635401 0.4218868 0
-0.65575433 -0.59746933 0.42807567 0
-0.64675015 -0.60488129 0.43808782 0
-0.6490097 -0.59279609 0.43608272 0
-0.64492029 -0.59175396 0.44084847 0
-0.64252609 -0.58774078 0.44380748 0
-0.63560748 -0.5918299 0.45158029 0
-0.62865984 -0.59610081 0.45937741 0
-0.62342328 -0.5973835 0.46535027 0
-0.62169164 -0.59229922 0.4675988 0
-0.61955953 -0.58792782 0.47027338 0
-0.60689521 -0.60324693 0.48411238 0
-0.60541856 -0.597772 0.48608625 0
-0.60012949 -0.59951639 0.4920969 0
-0.59983301 -0.59175944 0.49282348 0
-0.59158355 -0.5993278 0.50195765 0
-0.59495288 -0.58438194 0.49881518 0
-0.5929029 -0.57991052 0.50140023 0
-0.59700197 -0.56319046 0.49750459 0
-0.59682083 -0.55481648 0.49812889 0
-0.59737736 -0.54485774 0.49798143 0
-0.83202916 -0.056950569 0.25169069 0
-0.82674408 -0.05455327 0.25790209 0
-0.83172983 -0.030857801 0.25333035 0
-0.83109653 -0.018599749 0.25466859 0
-0.83489561 0.0031671524 0.25136918 0
-0.83740038 0.022479296 0.24943995 0
-0.83564132 0.032876015 0.25198364 0
-0.83788222 0.052064419 0.25035244 0
-0.8355915 0.061583996 0.25346541 0
-0.83190608 0.068107128 0.25803757 0
-0.8359881 0.091998339 0.25451738 0
-0.83696985 0.10926008 0.25424206 0
-0.83897114 0.12906957 0.25291795 0
-0.83718026 0.14046097 0.25554764 0
-0.8381772 0.15842915 0.25528985 0
-0.83715218 0.17192101 0.25714093 0
-0.84259689 0.20083117 0.25229889 0
-0.84104663 0.21354842 0.25471699 0
-0.84695989 0.24434423 0.24942845 0
-0.84287912 0.25140047 0.25448275 0
-0.84313756 0.26912165 0.25506407 0
-0.84396029 0.28848505 0.25507641 0
-0.8464337 0.31224561 0.25340402 0
-0.84652555 0.33037519 0.25419772 0
-0.84787798 0.35196853 0.25371009 0
-0.8466382 0.3672359 0.25589681 0
-0.85127395 0.39793611 0.25207609 0
-0.85008347 0.41389751 0.25424033 0
-0.85120088 0.43617821 0.25405788 0
-0.85203832 0.45805955 0.25417811 0
-0.85088164 0.47490692 0.25634742 0
-0.85509896 0.50662446 0.25305963 0
-0.8543188 0.52514505 0.25487787 0
-0.85513622 0.5483799 0.25508845 0
-0.85653466 0.5736208 0.25472867 0
-0.86131805 0.60887051 0.25096351 0
-0.85474753 0.61224699 0.25870538 0
-0.84429485 0.6043694 0.27036405 0
-0.83770263 0.60751176 0.27811927 0
-0.83193576 0.61306071 0.28504241 0
-0.82472998 0.61433792 0.29341245 0
-0.81646341 0.61234927 0.30284321 0
-0.80610961 0.60386419 0.31435776 0
-0.79967469 0.6071713 0.32193983 0
-0.79375654 0.6120646 0.32900488 0
-0.78502101 0.60810685 0.33887863 0
-0.77569026 0.60207725 0.34933561 0
-0.7689203 0.6040566 0.35723794 0
-0.76150888 0.60390258 0.36577404 0
-0.75329852 0.6010282 0.37509596 0
-0.74805206 0.60785103 0.38148248 0
-0.73853588 0.60038328 0.39208198 0
-0.73321289 0.60691357 0.39854217 0
-0.72414732 0.60063314 0.40868104 0
-0.71719003 0.60145259 0.41674185 0
-0.71120059 0.60560894 0.42385256 0
-0.70415217 0.60600376 0.43199742 0
-0.69691521 0.60564113 0.4403218 0
-0.69009221 0.60669112 0.44823933 0
-0.68171358 0.60193801 0.45766222 0
-0.67529607 0.60430861 0.46517766 0
-0.66852134 0.60529995 0.47303665 0
-0.65812415 0.59236097 0.48438013 0
-0.65517116 0.60787153 0.48855388 0
-0.64682716 0.60252547 0.49790728 0
-0.64661276 0.62928009 0.4994818 0
-0.8296513 -0.58746052 0.25085163 0
-0.82286435 -0.58824325 0.25841928 0
-0.81284606 -0.59346771 0.2693885 0
-0.8059873 -0.59457016 0.27702087 0
-0.80354357 -0.58972406 0.27999985 0
-0.79244596 -0.59681964 0.29208601 0
-0.78837031 -0.59433436 0.29677701 0
-0.78996003 -0.5839262 0.29551101 0
-0.77520424 -0.59656239 0.31142253 0
-0.7711454 -0.59421062 0.31608802 0
-0.76845729 -0.58991742 0.31931347 0
-0.76279455 -0.58994389 0.32565868 0
-0.75491047 -0.59329605 0.33432877 0
-0.74726295 -0.59642649 0.34274471 0
-0.7432009 -0.59433925 0.34740061 0
-0.73902464 -0.59245765 0.3521744 0
-0.73181254 -0.59521198 0.36012101 0
-0.72667742 -0.59490836 0.36589122 0
-0.72057331 -0.59616017 0.37267053 0
-0.7209186 -0.58748007 0.37271369 0
-0.71370751 -0.59055877 0.38064301 0
-0.70482492 -0.59639704 0.39030874 0
-0.70138073 -0.59373438 0.39430082 0
-0.69852793 -0.59014106 0.39767635 0
-0.69224799 -0.59210479 0.40461719 0
-0.68693924 -0.59257889 0.41054356 0
-0.68381482 -0.58952427 0.41419661 0
-0.68000752 -0.58761597 0.41855824 0
-0.67688888 -0.58458328 0.42220366 0
-0.66380382 -0.59841037 0.43618381 0
-0.66031259 -0.59617782 0.44020712 0
-0.65571803 -0.59586477 0.4453721 0
-0.65387428 -0.59083629 0.44768775 0
-0.64728928 -0.59407449 0.45490754 0
-0.64404422 -0.59153581 0.45867014 0
-0.63725919 -0.59531105 0.46608746 0
-0.63263649 -0.59532976 0.47126746 0
-0.62901419 -0.59359622 0.47541296 0
-0.62088978 -0.60010934 0.48419583 0
-0.62172192 -0.59030044 0.48374927 0
-0.6147365 -0.59489751 0.49135041 0
-0.60869175 -0.59786904 0.49797785 0
-0.60911781 -0.5887208 0.49795365 0
-0.6069569 -0.58439946 0.50058949 0
-0.61143631 -0.5672915 0.49641716 0
-0.60945874 -0.56246328 0.49887264 0
-0.60834777 -0.55591106 0.50044239 0
-0.84955084 -0.071053028 0.25413847 0
-0.85160124 -0.053877354 0.25269157 0
-0.85020739 -0.043399096 0.2547729 0
-0.85130012 -0.027779818 0.25432229 0
-0.85015905 -0.016532898 0.25615847 0
-0.85274088 0.0025098324 0.25420839 0
-0.85248673 0.015907049 0.25515711 0
-0.85209322 0.029167652 0.25625527 0
-0.84854633 0.035902023 0.26056427 0
-0.85715824 0.068662882 0.25253576 0
-0.85639828 0.081718683 0.2540344 0
-0.85983104 0.10405016 0.25129366 0
-0.85747337 0.11398625 0.25442845 0
-0.85846233 0.1314342 0.2541846 0
-0.85964358 0.14954543 0.25375813 0
-0.86124891 0.16886044 0.25291616 0
-0.86707079 0.19804907 0.24783766 0
-0.86484194 0.20918369 0.25088733 0
-0.86399662 0.22364712 0.25255138 0
-0.86390209 0.24005032 0.25347012 0
-0.86551535 0.26070929 0.25268584 0
-0.86214614 0.26978016 0.25691146 0
-0.86391979 0.29132009 0.25599086 0
-0.86819881 0.31927109 0.25258017 0
-0.86786157 0.33633375 0.25380367 0
-0.86941367 0.35831475 0.25315338 0
-0.87064224 0.37981796 0.25284201 0
-0.86919862 0.39489603 0.25520712 0
-0.8707481 0.41780829 0.25460583 0
-0.87343836 0.44401336 0.25288934 0
-0.87453181 0.46648669 0.2527774 0
-0.87318867 0.48291063 0.25509655 0
-0.87489569 0.50765538 0.25440967 0
-0.87665176 0.53293061 0.25369394 0
-0.87842834 0.55867195 0.25297844 0
-0.87932414 0.58242965 0.25315166 0
-0.87835503 0.60142422 0.25517905 0
-0.87375766 0.61059093 0.26078576 0
-0.86276519 0.60183239 0.2726717 0
-0.85829294 0.61135387 0.2781558 0
-0.85161835 0.61464357 0.28579944 0
-0.84303403 0.61235666 0.29530704 0
-0.83362061 0.60749173 0.3056162 0
-0.82473415 0.60399294 0.31540233 0
-0.81799084 0.60675097 0.32309657 0
-0.81317896 0.61532736 0.32891458 0
-0.80108726 0.60169625 0.34179091 0
-0.79448617 0.60467672 0.34933674 0
-0.7850334 0.59870291 0.359635 0
-0.7810846 0.60992408 0.36461675 0
-0.77223355 0.60561657 0.37432313 0
-0.76406795 0.60333872 0.38336205 0
-0.75933969 0.61216569 0.38909864 0
-0.75139463 0.61045742 0.39791846 0
-0.74066752 0.59931016 0.40938866 0
-0.73353928 0.59999943 0.41741168 0
-0.72860056 0.60811257 0.42334878 0
-0.72405511 0.61768913 0.42891777 0
-0.71201175 0.60112143 0.44159448 0
-0.70627385 0.60643578 0.44828856 0
-0.70061958 0.61209011 0.45490587 0
-0.69145352 0.60503602 0.46482933 0
-0.68318814 0.60103464 0.47389436 0
-0.67893451 0.61178136 0.47919428 0
-0.66986924 0.60457635 0.4889971 0
-0.6637882 0.60849214 0.49600661 0
-0.66141719 0.62675714 0.49956894 0
-0.85545266 -0.58765972 0.24815857 0
-0.84605867 -0.59148014 0.25817925 0
-0.8384909 -0.59307039 0.26632619 0
-0.83498609 -0.58943725 0.27031744 0
-0.82770497 -0.59081721 0.27816331 0
-0.8220529 -0.59012496 0.28434187 0
-0.81292653 -0.59417367 0.29406023 0
-0.80689442 -0.59416831 0.30061758 0
-0.80519444 -0.58830905 0.30275804 0
-0.79609722 -0.59263563 0.31243092 0
-0.79344368 -0.58814049 0.31553984 0
-0.785191 -0.5915029 0.32434285 0
-0.77343923 -0.59994888 0.33669561 0
-0.77561516 -0.58872604 0.33489066 0
-0.76837808 -0.5909369 0.34264714 0
-0.76046276 -0.5942409 0.35108626 0
-0.75438243 -0.59498453 0.35765862 0
-0.75253475 -0.58956027 0.35993803 0
-0.73764277 -0.60353732 0.37542808 0
-0.74014992 -0.59169161 0.37329423 0
-0.73420745 -0.59250855 0.37971294 0
-0.7319684 -0.58775055 0.38238442 0
-0.72274411 -0.59373724 0.39211261 0
-0.71634668 -0.59550118 0.39897871 0
-0.71178061 -0.59449196 0.40399253 0
-0.70839357 -0.59166801 0.40781534 0
-0.70379531 -0.59079003 0.41285765 0
-0.69866174 -0.5908215 0.41843629 0
-0.69575506 -0.58730888 0.42177129 0
-0.68478 -0.59698319 0.43321836 0
-0.68522012 -0.58807445 0.43318486 0
-0.67531127 -0.5962745 0.44354665 0
-0.66785121 -0.60057187 0.45144129 0
-0.66317815 -0.60029221 0.45653498 0
-0.66318107 -0.59209621 0.45694101 0
-0.66047823 -0.58847189 0.46006 0
-0.64867812 -0.60062134 0.47228038 0
-0.64759862 -0.59428787 0.47377002 0
-0.64351612 -0.59320152 0.47826207 0
-0.63594997 -0.59835291 0.48622942 0
-0.63501316 -0.59175396 0.48757732 0
-0.62705153 -0.59781384 0.49592912 0
-0.62234336 -0.59809589 0.50103307 0
-0.62201238 -0.59037805 0.50177824 0
-0.62348431 -0.57923305 0.50073469 0
-0.62808305 -0.56209135 0.49659169 0
-0.622379 -0.5641799 0.50268781 0
-0.62751073 -0.54570222 0.49803221 0
-0.8741383 -0.06248641 0.25407028 0
-0.87017584 -0.057034492 0.25864977 0
-0.87510186 -0.034173012 0.25443655 0
-0.87479675 -0.02132082 0.25541002 0
-0.87587559 -0.0055682659 0.25502384 0
-0.87967902 0.015855074 0.25195909 0
-0.87737572 0.025193453 0.25492918 0
-0.8761996 0.036918879 0.25679314 0
-0.87975991 0.058545113 0.25400293 0
-0.88163584 0.076966524 0.25288355 0
-0.88008153 0.088426352 0.25514531 0
-0.87919825 0.1014297 0.25675476 0
-0.88386488 0.12645602 0.25293165 0
-0.88284367 0.13957143 0.25469661 0
-0.88296223 0.15532207 0.25535429 0
-0.88719809 0.18032575 0.25199825 0
-0.88728392 0.19649363 0.25271231 0
-0.88921523 0.21700382 0.25163698 0
-0.88799387 0.23068023 0.25364757 0
-0.89159364 0.25551772 0.25097477 0
-0.88872004 0.26582694 0.25461322 0
-0.89171708 0.28988147 0.25255644 0
-0.88966364 0.30245185 0.25541621 0
-0.89536405 0.3335278 0.2507714 0
-0.89365536 0.34739375 0.25332123 0
-0.89600468 0.37122369 0.25195742 0
-0.89193463 0.37978005 0.25680888 0
-0.89550442 0.40719843 0.25429749 0
-0.89732975 0.43072295 0.253488 0
-0.89482844 0.44376159 0.25685799 0
-0.90061575 0.47794652 0.25227398 0
-0.89760208 0.49020648 0.25616205 0
-0.901932 0.52157283 0.25302154 0
-0.90001374 0.53717351 0.25588584 0
-0.90157318 0.56214738 0.25543761 0
-0.90426177 0.59052825 0.25393224 0
-0.90446872 0.61271644 0.2548151 0
-0.89421237 0.60686231 0.26567179 0
-0.88745463 0.61038136 0.27319336 0
-0.87890124 0.60890222 0.28241724 0
-0.86961085 0.60523343 0.29233283 0
-0.8643015 0.61264539 0.29847437 0
-0.85551816 0.61019349 0.30789971 0
-0.84804916 0.61138844 0.31607831 0
-0.84004867 0.61096215 0.32475382 0
-0.83043271 0.60567069 0.33494234 0
-0.82350194 0.6081717 0.34260118 0
-0.81740665 0.6131494 0.34947538 0
-0.80804032 0.6081841 0.35940897 0
-0.79999638 0.60708642 0.36809814 0
-0.79247677 0.60750365 0.37629282 0
-0.78702253 0.61433482 0.38256299 0
-0.77742046 0.60803437 0.39268601 0
-0.77049589 0.61011243 0.40031695 0
-0.7634424 0.61172748 0.40806496 0
-0.75155687 0.59739232 0.42026901 0
-0.74750894 0.60872006 0.42523491 0
-0.73997688 0.60849118 0.43341088 0
-0.7314775 0.6048739 0.44246936 0
-0.72426587 0.60552001 0.45034075 0
-0.71653193 0.60427165 0.45868552 0
-0.71158987 0.61275744 0.46448123 0
-0.70119864 0.60190082 0.47523475 0
-0.69566643 0.6082561 0.48156571 0
-0.68788481 0.60645032 0.48993433 0
-0.68111765 0.60827184 0.49738133 0
-0.67937326 0.62889457 0.50030744 0
-0.88310331 -0.59142852 0.25152761 0
-0.8786552 -0.58864963 0.25630939 0
-0.8670854 -0.59480774 0.26807886 0
-0.86226249 -0.59264672 0.27322108 0
-0.8555271 -0.5929606 0.28023595 0
-0.85113961 -0.5903486 0.28494608 0
-0.84102768 -0.59517431 0.29526031 0
-0.8344214 -0.59558797 0.30213547 0
-0.82712328 -0.59699583 0.30968314 0
-0.82350415 -0.5936234 0.31362921 0
-0.81851023 -0.59210873 0.31891751 0
-0.81436217 -0.58950198 0.32337749 0
-0.80950683 -0.58788788 0.32852614 0
-0.80114216 -0.59113574 0.33709532 0
-0.79680759 -0.58893514 0.3417297 0
-0.78957474 -0.59081459 0.34918571 0
-0.7819857 -0.59329915 0.3569833 0
-0.77740973 -0.59162068 0.36184371 0
-0.7721957 -0.59089732 0.36732233 0
-0.76372147 -0.59493756 0.37596631 0
-0.76222038 -0.58896506 0.3778311 0
-0.75296384 -0.59434474 0.38722503 0
-0.74800062 -0.59352803 0.3924464 0
-0.74015349 -0.59707022 0.4004606 0
-0.7390883 -0.59052861 0.40189898 0
-0.72633308 -0.60169148 0.41465616 0
-0.72789216 -0.59119153 0.41355264 0
-0.72189742 -0.5922426 0.41975772 0
-0.7137866 -0.59667158 0.42800295 0
-0.71070737 -0.59333777 0.43138349 0
-0.70700532 -0.59099722 0.4353646 0
-0.70040059 -0.59331656 0.44214308 0
-0.6964469 -0.59146738 0.44636238 0
-0.69075364 -0.59247494 0.45225477 0
-0.68428278 -0.59483576 0.45889151 0
-0.67891967 -0.59546757 0.46445811 0
-0.67572153 -0.59256244 0.4679414 0
-0.67236227 -0.58993828 0.47157872 0
-0.66549188 -0.59328175 0.47858346 0
-0.66199774 -0.59096873 0.48234606 0
-0.65225387 -0.59945357 0.49209368 0
-0.65177977 -0.5920186 0.4929595 0
-0.64114994 -0.6023308 0.50354064 0
-0.63931251 -0.5973196 0.50570858 0
-0.64283234 -0.58271599 0.50276327 0
-0.64481091 -0.57069063 0.50129807 0
-0.64628309 -0.55943251 0.50032318 0
-0.64903802 -0.54568601 0.49813354 0
-0.90413988 -0.065452576 0.25581586 0
-0.91050887 -0.040523291 0.25041175 0
-0.90524578 -0.03711462 0.25607556 0
-0.91011429 -0.014513254 0.25212151 0
-0.90541852 -0.0099005699 0.25725329 0
-0.9106549 0.013880968 0.25297415 0
-0.91161293 0.029665709 0.25276178 0
-0.915012 0.05044055 0.2502504 0
-0.91351241 0.061787844 0.25238198 0
-0.91155148 0.072327614 0.25495481 0
-0.91285264 0.089551687 0.2544561 0
-0.91001719 0.098575354 0.25786608 0
-0.91384691 0.12136626 0.25500584 0
-0.91614944 0.14131665 0.25359792 0
-0.91486758 0.15404224 0.25557107 0
-0.91601902 0.1720469 0.25526756 0
-0.92065358 0.19771051 0.25171047 0
-0.9187066 0.20960736 0.25433648 0
-0.91784352 0.22398496 0.2559548 0
-0.92194486 0.24940562 0.25294232 0
-0.91918474 0.26004624 0.25635439 0
-0.92374939 0.28712845 0.25294101 0
-0.92714322 0.31198978 0.25063914 0
-0.92694032 0.32905364 0.25170237 0
-0.92676944 0.3464191 0.2527473 0
-0.92617619 0.36304212 0.25419617 0
-0.9261232 0.38115048 0.25515503 0
-0.92881376 0.40598297 0.25358576 0
-0.929932 0.42745233 0.25348985 0
-0.92939967 0.44527078 0.25493461 0
-0.93190247 0.47070837 0.25359154 0
-0.93120486 0.48869824 0.25521737 0
-0.93277991 0.51256895 0.2547645 0
-0.93577176 0.54035306 0.25302798 0
-0.93573213 0.56093526 0.25409639 0
-0.93376368 0.57691026 0.25694835 0
-0.93823379 0.60968304 0.25391769 0
-0.9318254 0.61472368 0.26085854 0
-0.92264283 0.61247945 0.2703315 0
-0.91501397 0.61421347 0.27838123 0
-0.90576112 0.61153173 0.28790569 0
-0.89648151 0.60862422 0.29744685 0
-0.89242005 0.61983418 0.30224574 0
-0.87849033 0.60390401 0.31599104 0
-0.87163061 0.60729003 0.32332039 0
-0.86487347 0.61094117 0.3305558 0
-0.85603958 0.6086514 0.33966255 0
-0.84787345 0.60814261 0.34816116 0
-0.8408134 0.61074996 0.3556608 0
-0.83158457 0.60693502 0.36510372 0
-0.82401627 0.6078856 0.37305105 0
-0.81701505 0.61046982 0.38048804 0
-0.80722195 0.60452533 0.39041388 0
-0.80239582 0.61363363 0.39590585 0
-0.79513156 0.61527133 0.40357018 0
-0.7871117 0.6144774 0.41190207 0
-0.77721548 0.60760689 0.42188907 0
-0.77089465 0.61199045 0.42870557 0
-0.76382798 0.61395788 0.43618023 0
-0.75232095 0.60126567 0.44755816 0
-0.74787289 0.61169243 0.45272148 0
-0.73801839 0.6040616 0.46262705 0
-0.72990394 0.60209274 0.47099888 0
-0.72310936 0.60454249 0.47821343 0
-0.71655875 0.60781598 0.48521459 0
-0.70974511 0.61015224 0.49244344 0
-0.70501745 0.61992264 0.4978658 0
-0.70402473 0.6433773 0.50007236 0
-0.89600271 -0.5946362 0.25486374 0
-0.89327204 -0.58967865 0.25790727 0
-0.88884312 -0.58680224 0.26258445 0
-0.88235182 -0.58651054 0.26924282 0
-0.87730873 -0.58448863 0.27450573 0
-0.8679747 -0.5879128 0.28388715 0
-0.86119175 -0.58823824 0.29081303 0
-0.8512826 -0.59264994 0.30073351 0
-0.84461087 -0.59303594 0.3075425 0
-0.83775514 -0.59374547 0.31452364 0
-0.83152646 -0.59372032 0.32089984 0
-0.82902032 -0.58884168 0.32370961 0
-0.8238979 -0.58744872 0.32902223 0
-0.81173021 -0.59559476 0.3410669 0
-0.80860823 -0.59166801 0.34445912 0
-0.80196792 -0.59256649 0.35121024 0
-0.79824823 -0.58951855 0.35517025 0
-0.79295999 -0.58867562 0.36062491 0
-0.78464162 -0.5921464 0.36896455 0
-0.77690858 -0.59491754 0.3767401 0
-0.77475196 -0.58983886 0.37920225 0
-0.76864213 -0.5904386 0.38542533 0
-0.76207262 -0.59178543 0.3920815 0
-0.75294811 -0.59696698 0.40116024 0
-0.74991834 -0.59329796 0.40444529 0
-0.74151808 -0.59763646 0.41282523 0
-0.74025989 -0.59138179 0.41442668 0
-0.73192793 -0.59580684 0.42273223 0
-0.72941071 -0.59148538 0.42552543 0
-0.72265065 -0.59369469 0.43233335 0
-0.71765327 -0.59326565 0.4374696 0
-0.71078849 -0.59582067 0.44436729 0
-0.70876372 -0.59083009 0.44668996 0
-0.70264512 -0.59234476 0.45287645 0
-0.69489866 -0.59656477 0.46059299 0
-0.69161123 -0.5936873 0.46410191 0
-0.68924862 -0.58930886 0.46673977 0
-0.68686455 -0.58495164 0.46939838 0
-0.67902631 -0.58965468 0.47718465 0
-0.67226148 -0.59269738 0.48395574 0
-0.66291857 -0.60021508 0.49314082 0
-0.66043848 -0.59620655 0.49588025 0
-0.65775406 -0.59253883 0.49881172 0
-0.66222924 -0.5764327 0.49503958 0
-0.65851384 -0.57445204 0.49894154 0
-0.65491527 -0.57228887 0.50273323 0
-0.65522653 -0.56317878 0.50287187 0
-0.66018224 -0.54561973 0.49868071 0
-0.92221344 -0.061695814 0.25477803 0
-0.92097491 -0.05089736 0.25658751 0
-0.92186332 -0.036071062 0.2564221 0
-0.92792594 -0.011441231 0.25145298 0
-0.92668939 -0.00016856194 0.25328422 0
-0.92666548 0.013513327 0.25399512 0
-0.92357606 0.021492004 0.25755745 0
-0.93356067 0.054727793 0.24900603 0
-0.93014979 0.062415361 0.25288266 0
-0.93315148 0.08273387 0.25083005 0
-0.92844206 0.088062048 0.25591737 0
-0.9266032 0.099130869 0.25835478 0
-0.92977959 0.12041736 0.25617182 0
-0.93159652 0.13923478 0.25525641 0
-0.93377554 0.15904641 0.25402027 0
-0.93414599 0.17538357 0.25446081 0
-0.93751687 0.19819665 0.25215548 0
-0.93488157 0.20867372 0.25537843 0
-0.93766934 0.2307899 0.25363481 0
-0.93611217 0.24389291 0.25588608 0
-0.94186276 0.27298236 0.25146002 0
-0.9400928 0.28607154 0.25392824 0
-0.94105232 0.30533648 0.25391281 0
-0.94134521 0.32338357 0.25451863 0
-0.9414686 0.34129548 0.25529099 0
-0.94256562 0.36166072 0.25519013 0
-0.94743729 0.39096665 0.25167447 0
-0.94451243 0.40270066 0.25525677 0
-0.94505459 0.42265964 0.25570333 0
-0.95172411 0.45735145 0.25061792 0
-0.9503414 0.47344923 0.25284076 0
-0.94927478 0.49052143 0.25478905 0
-0.94686085 0.50455904 0.25796402 0
-0.95157552 0.5362401 0.2547282 0
-0.95698702 0.57016993 0.2508921 0
-0.95268357 0.5803957 0.25580972 0
-0.95535612 0.60832858 0.25447595 0
-0.94647598 0.60727596 0.26351178 0
-0.93979466 0.611763 0.27057511 0
-0.9311133 0.61104059 0.27942401 0
-0.92504019 0.61705518 0.28594154 0
-0.91924286 0.62382507 0.29221475 0
-0.90405846 0.60547614 0.30683494 0
-0.89918762 0.61457849 0.31227684 0
-0.89052546 0.61339998 0.32108331 0
-0.87917703 0.60467482 0.33226037 0
-0.87277842 0.60949707 0.33905119 0
-0.86656576 0.61485052 0.34567833 0
-0.85847723 0.6148715 0.35395777 0
-0.84483415 0.59878206 0.36711395 0
-0.84087431 0.61047387 0.37175333 0
-0.83388489 0.61339998 0.37905371 0
-0.82633632 0.61463165 0.38684142 0
-0.81466156 0.603374 0.39822543 0
-0.80799556 0.60702205 0.40523088 0
-0.79742724 0.59864783 0.41562736 0
-0.79431731 0.61321068 0.419541 0
-0.78823322 0.61864996 0.42604077 0
-0.77656406 0.60633969 0.43736637 0
-0.77264327 0.6186111 0.44199491 0
-0.76344192 0.61387277 0.4511745 0
-0.75192302 0.60129499 0.46233273 0
-0.74714774 0.61082101 0.46769822 0
-0.73747241 0.60394931 0.47725594 0
-0.73004907 0.60451579 0.484882 0
-0.72327763 0.60726094 0.49195015 0
-0.71761894 0.61387897 0.4980737 0
-0.7170372 0.63855219 0.49990714 0
-0.91911507 -0.59049356 0.25676394 0
-0.91435117 -0.58781934 0.26163036 0
-0.91018182 -0.58447123 0.26594055 0
-0.90358353 -0.58408308 0.27251273 0
-0.892277 -0.5895071 0.28346598 0
-0.88630712 -0.5885489 0.28944308 0
-0.87760776 -0.59103715 0.29795587 0
-0.87136823 -0.59057403 0.30417567 0
-0.86742848 -0.58728325 0.3082549 0
-0.85508925 -0.59469175 0.32013297 0
-0.85134554 -0.59128523 0.32402349 0
-0.84904003 -0.58603764 0.32657897 0
-0.83955014 -0.5901444 0.33579493 0
-0.82907367 -0.59569407 0.34591746 0
-0.82725477 -0.58993196 0.34801579 0
-0.82267123 -0.58784282 0.35267341 0
-0.81211585 -0.59384561 0.36285138 0
-0.80791003 -0.59138715 0.36715257 0
-0.80701762 -0.58441401 0.36839235 0
-0.79775226 -0.58897567 0.37736213 0
-0.79181039 -0.58905005 0.38325918 0
-0.7815699 -0.5952425 0.39311469 0
-0.77368373 -0.5982697 0.40079272 0
-0.77520388 -0.58795917 0.39980567 0
-0.76501089 -0.59444153 0.40959954 0
-0.75983113 -0.59380722 0.41477549 0
-0.75658602 -0.59039021 0.41817129 0
-0.7490871 -0.59327626 0.4254719 0
-0.74589413 -0.58985138 0.42881632 0
-0.73634899 -0.59599388 0.43798399 0
-0.72842103 -0.59985089 0.44566154 0
-0.72643638 -0.59474027 0.44789135 0
-0.72044843 -0.59578586 0.45378482 0
-0.71792388 -0.59152055 0.45650804 0
-0.71229017 -0.59212661 0.46207201 0
-0.70567137 -0.59436512 0.46853149 0
-0.70567232 -0.58613205 0.46894777 0
-0.69553483 -0.59414899 0.47860873 0
-0.68405223 -0.60454917 0.48948467 0
-0.68556178 -0.59390235 0.48852503 0
-0.68656057 -0.58397591 0.48803627 0
-0.67288452 -0.59839499 0.5008868 0
-0.67425388 -0.58783185 0.50006223 0
-0.67526162 -0.57775807 0.49957204 0
-0.67424852 -0.57102418 0.50091946 0
-0.67891979 -0.55442834 0.49712157 0
-0.67526072 -0.55209637 0.50087357 0
-0.94433534 -0.071182966 0.2580384 0
-0.95019692 -0.047875881 0.25339872 0
-0.94792652 -0.03876853 0.25611496 0
-0.95097226 -0.020014524 0.25404084 0
-0.95394295 -0.0011560917 0.25204653 0
-0.95115244 0.0073866844 0.25525069 0
-0.95286137 0.02431035 0.2544114 0
-0.95259356 0.037758112 0.25535887 0
-0.95353168 0.053623915 0.25523126 0
-0.95396113 0.068716764 0.25556976 0
-0.9521867 0.079767942 0.25789207 0
-0.95550013 0.10075831 0.25566536 0
-0.95599753 0.11654449 0.25597155 0
-0.95555675 0.13067842 0.25712562 0
-0.95957553 0.15382695 0.25430793 0
-0.95861936 0.16734052 0.25594234 0
-0.95950198 0.18472338 0.25594682 0
-0.95985013 0.20124078 0.2564382 0
-0.96131021 0.22025514 0.255952 0
-0.96411324 0.24231339 0.25428641 0
-0.96366554 0.2578733 0.25551957 0
-0.96673197 0.28105736 0.25364947 0
-0.96673572 0.29804111 0.25450641 0
-0.96771294 0.31734228 0.25451428 0
-0.97029209 0.3403914 0.25312114 0
-0.96418482 0.34471822 0.25940537 0
-0.97204077 0.37995458 0.25338972 0
-0.97102809 0.39593482 0.25520539 0
-0.97494489 0.42324495 0.25269985 0
-0.97410363 0.44013906 0.25439149 0
-0.97527522 0.46188784 0.25433028 0
-0.97859454 0.48894286 0.25240523 0
-0.9765982 0.50396061 0.25514889 0
-0.97498071 0.52006841 0.25757146 0
-0.97657323 0.54406071 0.25720602 0
-0.98090106 0.57502317 0.25447744 0
-0.98114288 0.59653783 0.2553277 0
-0.97859681 0.61151671 0.25861531 0
-0.96863157 0.60825515 0.26834613 0
-0.95888442 0.60537553 0.27787971 0
-0.95280749 0.61164141 0.28423214 0
-0.94344008 0.60951018 0.29342657 0
-0.93381727 0.6065762 0.30283397 0
-0.92393637 0.60280919 0.31245542 0
-0.91997981 0.61450434 0.31697726 0
-0.90898675 0.60757971 0.32754314 0
-0.90008491 0.60604835 0.33630574 0
-0.89424801 0.61273289 0.34244084 0
-0.88658011 0.61442518 0.35014141 0
-0.87280399 0.59907627 0.36304414 0
-0.86862087 0.61025786 0.36776483 0
-0.86077511 0.61118412 0.3756032 0
-0.85289133 0.61192799 0.38346994 0
-0.84602463 0.61554408 0.39047229 0
-0.83489507 0.60664296 0.40107358 0
-0.8278479 0.60955858 0.4082197 0
-0.81839377 0.60522985 0.41738892 0
-0.80918568 0.60145926 0.42634201 0
-0.80544776 0.61428094 0.43070388 0
-0.79422021 0.60408282 0.44133675 0
-0.78726798 0.60696673 0.44838691 0
-0.77780896 0.6018765 0.45752227 0
-0.7718724 0.60787988 0.46372199 0
-0.76463407 0.60970902 0.47100282 0
-0.75864762 0.61560369 0.47724652 0
-0.74902511 0.60946631 0.4864912 0
-0.73852211 0.60013151 0.4964484 0
-0.73588687 0.61726332 0.4999336 0
-0.73605901 0.6443975 0.50113785 0
-0.95322305 -0.58263206 0.24745727 0
-0.94453239 -0.58419061 0.25576168 0
-0.9297666 -0.59290612 0.26956511 0
-0.92925525 -0.5851891 0.27044767 0
-0.92237908 -0.58492994 0.27709359 0
-0.91294891 -0.58778834 0.28604573 0
-0.90723199 -0.58632398 0.2916342 0
-0.89658862 -0.59087729 0.30167115 0
-0.8879472 -0.59314644 0.30989218 0
-0.88447136 -0.58917713 0.31344527 0
-0.87260044 -0.59563947 0.32456994 0
-0.87710524 -0.58179104 0.32092333 0
-0.86187112 -0.5927043 0.33506763 0
-0.85846168 -0.58882535 0.33855212 0
-0.84854442 -0.59331322 0.34789193 0
-0.84596616 -0.588449 0.35062444 0
-0.84017026 -0.58777905 0.35624897 0
-0.83233941 -0.58985209 0.36369789 0
-0.82474357 -0.59172177 0.37093055 0
-0.82012606 -0.58970702 0.37548637 0
-0.81554902 -0.58767509 0.38000393 0
-0.80256635 -0.59713149 0.39204991 0
-0.80311489 -0.5882293 0.39197004 0
-0.79386729 -0.5928185 0.40065873 0
-0.78796399 -0.59288263 0.40634978 0
-0.77966547 -0.59639156 0.41417754 0
-0.78088224 -0.58650696 0.41350269 0
-0.77234107 -0.59050584 0.42153966 0
-0.77004129 -0.58562016 0.42400467 0
-0.75895071 -0.59353042 0.43430352 0
-0.75522721 -0.59081316 0.43803239 0
-0.74751925 -0.59402132 0.44530559 0
-0.74091661 -0.59569669 0.45159006 0
-0.73467034 -0.59692764 0.45755315 0
-0.73555249 -0.58740449 0.45718277 0
-0.72773457 -0.59112322 0.46453631 0
-0.71737146 -0.59890461 0.47413993 0
-0.7146064 -0.59503067 0.47700262 0
-0.71030033 -0.59357619 0.48122966 0
-0.71092254 -0.58433974 0.48109567 0
-0.69616956 -0.59960628 0.49455607 0
-0.69731241 -0.58954406 0.49396133 0
-0.68919182 -0.59444571 0.50154722 0
-0.69348711 -0.57911015 0.49817777 0
-0.69532657 -0.56763554 0.49698246 0
-0.69143474 -0.56559372 0.50083959 0
-0.69429237 -0.55220771 0.49875855 0
-0.69517148 -0.54201102 0.49842513 0
-0.97167778 -0.059372902 0.25606 0
-0.97089195 -0.047719002 0.25740612 0
-0.97319835 -0.030558825 0.25604731 0
-0.97785383 -0.0090558529 0.25264162 0
-0.97629857 0.0017161369 0.2546854 0
-0.97624046 0.015266657 0.25542527 0
-0.97755623 0.031446695 0.25497252 0
-0.97809988 0.046415567 0.25520349 0
-0.98191738 0.067574024 0.25258875 0
-0.98364431 0.085141897 0.25180942 0
-0.97875535 0.090559721 0.2567988 0
-0.98542637 0.11779118 0.25173801 0
-0.98409855 0.13019323 0.2536447 0
-0.98336619 0.14386916 0.25504118 0
-0.98485184 0.16199613 0.2545228 0
-0.9876554 0.18293381 0.25287497 0
-0.98792017 0.19914889 0.25343788 0
-0.99183381 0.22282815 0.25085759 0
-0.98812157 0.23152804 0.25487751 0
-0.98493272 0.24135399 0.25844932 0
-0.99057394 0.26932502 0.25441921 0
-0.98867583 0.28215504 0.25689757 0
-0.99774092 0.31796241 0.24996018 0
-0.99012518 0.31927133 0.25737244 0
-0.99300039 0.34276676 0.25578463 0
-0.99693882 0.36888099 0.25330335 0
-0.99436212 0.38130641 0.25641584 0
-0.99422741 0.39919639 0.25744849 0
-0.99929547 0.42878318 0.25405288 0
-0.99856776 0.44594932 0.25562102 0
-1.0021591 0.47303629 0.25352353 0
-1.0036129 0.49569893 0.2532649 0
-1.0044813 0.51735878 0.25352019 0
-1.0022558 0.53219199 0.25641543 0
-1.0090075 0.56814265 0.25171685 0
-1.004848 0.57900548 0.25627726 0
-1.010112 0.61237979 0.25288361 0
-1.0029187 0.6164062 0.26002556 0
-0.98953378 0.60540152 0.27238142 0
-0.98180652 0.60792685 0.27996254 0
-0.97310734 0.60799956 0.28835762 0
-0.96635824 0.61284304 0.29511219 0
-0.957394 0.61209726 0.30372155 0
-0.94711345 0.60788441 0.3134256 0
-0.93969095 0.61084199 0.32073462 0
-0.93004811 0.60798931 0.32989222 0
-0.92500895 0.61707306 0.3352114 0
-0.91185999 0.60472393 0.3472718 0
-0.90448219 0.60749722 0.35452843 0
-0.89756912 0.6114924 0.36139834 0
-0.8933354 0.62281394 0.36605358 0
-0.88058192 0.61070061 0.37774444 0
-0.87205982 0.61006927 0.38593304 0
-0.86320686 0.6083951 0.39438808 0
-0.85310125 0.6030097 0.40386426 0
-0.84939444 0.61590171 0.40809047 0
-0.83741808 0.60482812 0.41908419 0
-0.83322418 0.61640143 0.42371368 0
-0.82304943 0.61028004 0.43321931 0
-0.8119632 0.60117674 0.44345391 0
-0.80833584 0.61455584 0.4476279 0
-0.79841202 0.60870028 0.45690501 0
-0.78937101 0.60537839 0.46545839 0
-0.78297359 0.61024404 0.47187495 0
-0.77114612 0.59777093 0.48265445 0
-0.76558161 0.6051774 0.48839569 0
-0.75872171 0.60843039 0.49517691 0
-0.75511307 0.62244439 0.49936497 0
-0.75578517 0.65106297 0.50016081 0
-0.96715862 -0.5861547 0.25241095 0
-0.95615959 -0.59013247 0.26258546 0
-0.95089418 -0.58774853 0.26767337 0
-0.94169676 -0.58991802 0.27623993 0
-0.93553978 -0.58869433 0.2821101 0
-0.92632413 -0.59110141 0.29068184 0
-0.9224028 -0.5874052 0.29456824 0
-0.91331381 -0.58985972 0.30301809 0
-0.90785694 -0.58809161 0.30825543 0
-0.90142924 -0.58754611 0.31434655 0
-0.898175 -0.58320904 0.31763613 0
-0.88947481 -0.58556294 0.32572436 0
-0.87997711 -0.58902371 0.33450878 0
-0.87301147 -0.5894599 0.34105772 0
-0.86614972 -0.58984971 0.34751099 0
-0.85557002 -0.59504485 0.3572284 0
-0.84950423 -0.59462237 0.3629719 0
-0.84861737 -0.58757794 0.36416531 0
-0.84728837 -0.58106375 0.365749 0
-0.83133322 -0.59372687 0.38015902 0
-0.82899189 -0.5886426 0.38262522 0
-0.81685781 -0.59662771 0.39366758 0
-0.81810564 -0.58678937 0.39298868 0
-0.81356525 -0.58471978 0.39737666 0
-0.80052257 -0.59433651 0.40919352 0
-0.79682457 -0.59127271 0.41283715 0
-0.79175496 -0.59013736 0.41767716 0
-0.78099304 -0.59705162 0.42747939 0
-0.77918148 -0.59146476 0.42947114 0
-0.77115488 -0.59473395 0.43687761 0
-0.77353555 -0.58312285 0.43521976 0
-0.76358843 -0.58930254 0.44429052 0
-0.7555207 -0.59289777 0.45171916 0
-0.75113982 -0.59116793 0.45593941 0
-0.74935114 -0.58560789 0.45790851 0
-0.73962623 -0.59195209 0.46676123 0
-0.73407012 -0.59214568 0.47199285 0
-0.72531688 -0.59729588 0.47998941 0
-0.721591 -0.59484076 0.48362851 0
-0.71694154 -0.59384251 0.48806512 0
-0.71259731 -0.59240937 0.49223602 0
-0.70575315 -0.59496903 0.49856269 0
-0.70092243 -0.59441948 0.50314772 0
-0.70651007 -0.57714856 0.49875128 0
-0.70904183 -0.56460214 0.49699819 0
-0.70771271 -0.55822253 0.49857509 0
-0.70847893 -0.54833269 0.49835324 0
-0.98938948 -0.071614027 0.25749779 0
-0.99418509 -0.050693274 0.25403327 0
-0.99183851 -0.04160428 0.25670731 0
-0.99441355 -0.024031878 0.25516802 0
-0.99097705 -0.016610146 0.25878578 0
-0.99393988 0.001983881 0.25693238 0
-0.99682969 0.020685196 0.25515336 0
-0.99805039 0.03666997 0.25481141 0
-1.0021917 0.058060169 0.25198787 0
-0.99903762 0.066594601 0.25539559 0
-1.0006058 0.083770514 0.25478601 0
-0.99968177 0.096589565 0.25630689 0
-1.0008341 0.11338472 0.25607049 0
-1.0060855 0.13803625 0.25236499 0
-1.0035597 0.14839411 0.25527221 0
-1.0032737 0.16309857 0.25628674 0
-1.00131 0.17475915 0.25872976 0
-1.0074143 0.20213723 0.25435776 0
-1.0039619 0.21127081 0.25807714 0
-1.0094757 0.23812795 0.2542358 0
-1.0047678 0.24507284 0.25902867 0
-1.0114012 0.2747848 0.25427592 0
-1.0134422 0.29565573 0.25340754 0
-1.0104657 0.30657125 0.25676811 0
-1.0132319 0.32942367 0.25531602 0
-1.0148786 0.35027456 0.2548185 0
-1.0188566 0.37630796 0.25238436 0
-1.0152229 0.38660717 0.25633383 0
-1.0183721 0.41150236 0.25462383 0
-1.0180058 0.42918181 0.25586468 0
-1.0197992 0.45179987 0.25531828 0
-1.0219736 0.47558522 0.25447166 0
-1.0225998 0.49628687 0.2549293 0
-1.0206909 0.51160312 0.25750577 0
-1.0257205 0.54281044 0.2543416 0
-1.0245653 0.5603919 0.25632167 0
-1.0296643 0.59263563 0.2531445 0
-1.0268579 0.6069963 0.2565192 0
-1.0231738 0.61947131 0.26062644 0
-1.0098246 0.60914135 0.27269632 0
-1.0034115 0.61513567 0.27904969 0
-0.99220175 0.60953307 0.28934073 0
-0.98451459 0.61233211 0.29673427 0
-0.97393912 0.60795307 0.30648893 0
-0.96731615 0.61324716 0.31300479 0
-0.95980543 0.6163125 0.32024533 0
-0.94829631 0.60916138 0.33074033 0
-0.94040591 0.61107278 0.33828062 0
-0.93051553 0.60772848 0.34744138 0
-0.92233866 0.60871625 0.35520518 0
-0.91474241 0.61116862 0.3624953 0
-0.9056313 0.60951519 0.37100661 0
-0.89755136 0.61052442 0.37867987 0
-0.88931215 0.61102366 0.38647771 0
-0.87863827 0.604702 0.39622676 0
-0.86993784 0.60366964 0.40438211 0
-0.86629152 0.61680889 0.40848732 0
-0.85453689 0.60696864 0.41907775 0
-0.84454292 0.60190558 0.42824924 0
-0.84143198 0.61674619 0.43193555 0
-0.83409011 0.61932755 0.43899226 0
-0.8246547 0.61562133 0.44770551 0
-0.81307292 0.60525489 0.45810616 0
-0.80817777 0.61499166 0.46321726 0
-0.80016118 0.61521554 0.47079098 0
-0.79069239 0.61081314 0.47950053 0
-0.78302413 0.61191297 0.48679006 0
-0.77357501 0.60725021 0.49546778 0
-0.76905721 0.61835647 0.50029218 0
-0.77019024 0.64815879 0.50073266 0
-0.99107212 -0.5923239 0.25701201 0
-0.99007189 -0.58501148 0.25829405 0
-0.97929919 -0.58840382 0.26795042 0
-0.97458565 -0.58522522 0.27241117 0
-0.96431255 -0.58829665 0.28162789 0
-0.95349586 -0.5921216 0.29130268 0
-0.94748753 -0.59062672 0.29685944 0
-0.93564481 -0.59588623 0.30739772 0
-0.93191653 -0.59192741 0.31099898 0
-0.92655003 -0.58989561 0.31599748 0
-0.91472292 -0.59551752 0.3265031 0
-0.91428399 -0.58779335 0.32729375 0
-0.90683526 -0.58841252 0.33405793 0
-0.90363282 -0.58399308 0.33720279 0
-0.89195508 -0.58990145 0.34755772 0
-0.88426852 -0.59108567 0.35451019 0
-0.87325478 -0.59648967 0.36428487 0
-0.87089533 -0.59124851 0.3667022 0
-0.86732012 -0.58752513 0.37015188 0
-0.85889715 -0.58997488 0.37771237 0
-0.85395235 -0.58808267 0.38231909 0
-0.84309131 -0.59387934 0.39193451 0
-0.83887255 -0.59118915 0.3959192 0
-0.83259755 -0.59122849 0.40164173 0
-0.8247962 -0.59336388 0.40865099 0
-0.82153702 -0.58953333 0.41181791 0
-0.81827879 -0.58570683 0.41498363 0
-0.81074685 -0.58769679 0.42175436 0
-0.80090952 -0.59295154 0.43046331 0
-0.79963648 -0.5865202 0.43194973 0
-0.79423773 -0.5858016 0.43691123 0
-0.78799641 -0.58632374 0.44257867 0
-0.7820242 -0.58654034 0.44801617 0
-0.77359498 -0.59034204 0.45551383 0
-0.7640413 -0.59589672 0.46394897 0
-0.76348263 -0.58852363 0.46483123 0
-0.75526834 -0.59232283 0.47213304 0
-0.75022894 -0.59155273 0.47676933 0
-0.74326438 -0.59370649 0.48301423 0
-0.74202758 -0.58733845 0.48446417 0
-0.73551494 -0.58893323 0.49032509 0
-0.72434449 -0.59774899 0.50007033 0
-0.7224865 -0.59239757 0.50203574 0
-0.72761422 -0.57613635 0.49817944 0
-0.72526604 -0.57139921 0.50056088 0
-0.72534674 -0.56279397 0.50092208 0
-0.7278989 -0.55015302 0.49923265 0
-1.0211914 -0.068805933 0.25598675 0
-1.024624 -0.050376654 0.25378644 0
-1.0251021 -0.036562204 0.25404817 0
-1.0241528 -0.024960279 0.25550056 0
-1.020304 -0.018084288 0.25935918 0
-1.0220757 -0.0017230511 0.25856966 0
-1.02596 0.018418312 0.25604367 0
-1.0273368 0.034527302 0.25560153 0
-1.0298123 0.052723646 0.25426257 0
-1.0331442 0.07263875 0.25222927 0
-1.0310235 0.083229542 0.25469911 0
-1.033828 0.1026454 0.25312161 0
-1.0368204 0.12264752 0.25140238 0
-1.0356534 0.13540554 0.25311154 0
-1.0352409 0.14966917 0.25420874 0
-1.0358191 0.16591263 0.25450194 0
-1.033574 0.17712092 0.2571165 0
-1.0396347 0.20396161 0.25294363 0
-1.0371563 0.21508431 0.25576645 0
-1.0396848 0.23584008 0.2545085 0
-1.0430869 0.25855279 0.25255251 0
-1.0400007 0.26900959 0.25589645 0
-1.0405937 0.28675365 0.25625193 0
-1.0431197 0.30853844 0.25504822 0
-1.0445838 0.32851076 0.2547217 0
-1.0478861 0.35244608 0.25291836 0
-1.0468515 0.36793041 0.25464463 0
-1.0471377 0.38630581 0.25531197 0
-1.0501227 0.4104979 0.25381124 0
-1.0532126 0.4352603 0.25224352 0
-1.0507994 0.448807 0.25512958 0
-1.0536425 0.47367215 0.25379217 0
-1.0515175 0.48825455 0.25646758 0
-1.0539002 0.51276708 0.25553244 0
-1.0563114 0.53770685 0.25459301 0
-1.0587242 0.56302524 0.25367111 0
-1.0597011 0.58552909 0.25391698 0
-1.0605778 0.60813856 0.25425953 0
-1.0537304 0.61355066 0.2607798 0
-1.0422604 0.60836887 0.27098191 0
-1.0358483 0.61468768 0.27715093 0
-1.0236225 0.60744214 0.28793824 0
-1.012681 0.60298228 0.29769462 0
-1.007305 0.61159754 0.30303442 0
-0.9961437 0.60635734 0.31295198 0
-0.98983938 0.61272025 0.31902486 0
-0.98266375 0.61697197 0.32578593 0
-0.97384942 0.61714578 0.33383584 0
-0.96189958 0.6093657 0.34434456 0
-0.95352834 0.61038756 0.35203302 0
-0.94377291 0.6077919 0.3608017 0
-0.93237185 0.60079241 0.37084913 0
-0.9288255 0.61405969 0.37475479 0
-0.91962361 0.61258745 0.38307512 0
-0.90962517 0.60886335 0.39200842 0
-0.90144581 0.60986686 0.39952099 0
-0.89219916 0.60788965 0.40785682 0
-0.88409567 0.6089232 0.41530168 0
-0.87830234 0.61631298 0.42096031 0
-0.86772436 0.61031008 0.43030715 0
-0.85539567 0.59910202 0.44098818 0
-0.85169852 0.61237526 0.44503164 0
-0.84465832 0.61613059 0.45164406 0
-0.83453739 0.61082053 0.46060908 0
-0.82811499 0.61629629 0.46674478 0
-0.8174175 0.60894799 0.47613263 0
-0.80789167 0.60490417 0.48461866 0
-0.80220997 0.6125071 0.4901861 0
-0.79325515 0.61000633 0.49822915 0
-0.79512888 0.64146996 0.49810946 0
-1.026203 -0.58654189 0.251737 0
-1.0206965 -0.58385754 0.25673878 0
-1.0154642 -0.58092618 0.26151073 0
-1.0067281 -0.58179569 0.26918662 0
-0.99847484 -0.5822475 0.27645695 0
-0.983105 -0.59056818 0.28961784 0
-0.97734374 -0.58853698 0.29481173 0
-0.97245353 -0.58558941 0.29928225 0
-0.96498156 -0.58556986 0.30588597 0
-0.95563018 -0.58775949 0.31403881 0
-0.9458791 -0.59052646 0.32251561 0
-0.93961179 -0.58941877 0.32810986 0
-0.93352652 -0.5881629 0.33355087 0
-0.92694092 -0.58755231 0.3394013 0
-0.91722769 -0.5907011 0.34782529 0
-0.91501534 -0.58506024 0.35006559 0
-0.90979445 -0.58301163 0.35478294 0
-0.89744502 -0.58963275 0.36536074 0
-0.88618642 -0.5951134 0.37503231 0
-0.88470072 -0.58873594 0.37666798 0
-0.8774184 -0.58952057 0.38306344 0
-0.87235147 -0.58762074 0.38763702 0
-0.86089325 -0.59383202 0.39744818 0
-0.85701513 -0.59057188 0.40104008 0
-0.8505742 -0.59062004 0.40672934 0
-0.84110558 -0.59466219 0.41489208 0
-0.84025353 -0.58759224 0.41600263 0
-0.83323342 -0.58859658 0.42215526 0
-0.82139015 -0.59609461 0.43224156 0
-0.81565702 -0.59560597 0.43733251 0
-0.81636065 -0.58648312 0.43717229 0
-0.80279571 -0.59671152 0.44864166 0
-0.79850417 -0.59444189 0.45254886 0
-0.79589343 -0.58987212 0.45508707 0
-0.79061341 -0.58902121 0.45979607 0
-0.78261131 -0.59205818 0.46671367 0
-0.7743054 -0.59564459 0.47387183 0
-0.76953679 -0.59428751 0.47815454 0
-0.76388806 -0.594244 0.48314834 0
-0.75764865 -0.59512496 0.4886173 0
-0.75202817 -0.59517443 0.49358153 0
-0.74712038 -0.59423113 0.49796617 0
-0.74984068 -0.58192706 0.49618471 0
-0.7447347 -0.58127832 0.50072968 0
-0.74453968 -0.57321072 0.50131023 0
-0.74521244 -0.56373572 0.50119507 0
-0.74631447 -0.55349576 0.50073922 0
-1.0474665 -0.074893713 0.25883359 0
-1.058368 -0.044971704 0.25071418 0
-1.0534989 -0.039661646 0.25528556 0
-1.0512662 -0.030130863 0.25774074 0
-1.0588353 -0.0046961308 0.25233901 0
-1.0593109 0.0095307827 0.25263846 0
-1.0529009 0.012597322 0.25845796 0
-1.0563015 0.031884909 0.25642878 0
-1.0610059 0.053596258 0.25337011 0
-1.0580492 0.062672615 0.25644207 0
-1.0626998 0.084756136 0.2534498 0
-1.0596571 0.093930006 0.2566027 0
-1.0617379 0.11204076 0.25568032 0
-1.0646403 0.13181138 0.25411582 0
-1.0604624 0.1393621 0.2581898 0
-1.0606594 0.15472817 0.258793 0
-1.0676626 0.18247628 0.25400841 0
-1.0699081 0.20201588 0.25301272 0
-1.0701594 0.21816802 0.25360793 0
-1.0715929 0.23669004 0.25327814 0
-1.0705032 0.25075936 0.25495297 0
-1.0689884 0.26418805 0.256971 0
-1.0716938 0.28574491 0.25567102 0
-1.07522 0.3091619 0.25373983 0
-1.0735344 0.32286763 0.25592285 0
-1.0743762 0.34163737 0.25612855 0
-1.0726578 0.35563016 0.25835496 0
-1.07725 0.38227201 0.25564492 0
-1.0816044 0.40883088 0.25314081 0
-1.0815903 0.42697263 0.25407118 0
-1.0801647 0.4424789 0.25611544 0
-1.0822948 0.46547532 0.25539654 0
-1.0878143 0.49582648 0.25205475 0
-1.0870421 0.51348138 0.25363034 0
-1.0838801 0.52631927 0.25707406 0
-1.0878687 0.55454183 0.25497741 0
-1.0893259 0.57774997 0.25486392 0
-1.0917245 0.60334325 0.25403911 0
-1.0887713 0.61758256 0.25736928 0
-1.0804744 0.62015605 0.2648313 0
-1.0668416 0.61074376 0.276402 0
-1.0567968 0.60914397 0.28519744 0
-1.051164 0.61746955 0.29059613 0
-1.0419246 0.61755157 0.29876488 0
-1.0291592 0.60933518 0.30962968 0
-1.0203216 0.61007619 0.31747669 0
-1.0123169 0.61270595 0.32468331 0
-1.0035272 0.61340737 0.33248615 0
-0.99442488 0.61326671 0.34052241 0
-0.98773444 0.61891818 0.34672058 0
-0.97386795 0.60686898 0.35836446 0
-0.96901977 0.61696601 0.36315954 0
-0.95899171 0.61412168 0.37187707 0
-0.94904566 0.61132836 0.38052487 0
-0.93924564 0.60875535 0.38905466 0
-0.93287295 0.61494088 0.39499903 0
-0.92015362 0.60448861 0.40570986 0
-0.91199052 0.6058147 0.41299057 0
-0.9057368 0.61219716 0.41883981 0
-0.89493805 0.60629678 0.42808378 0
-0.88737518 0.60904431 0.43490589 0
-0.87812513 0.60708165 0.44298065 0
-0.87069911 0.61009383 0.44969523 0
-0.86417288 0.61562896 0.45574248 0
-0.85311198 0.6082046 0.46514094 0
-0.84610057 0.61225152 0.47154152 0
-0.83784968 0.6126678 0.47885358 0
-0.82895172 0.61108375 0.48663652 0
-0.82088816 0.61187434 0.49380195 0
-0.81332409 0.61410642 0.50059915 0
-0.81592447 0.64747977 0.49998975 0
-1.0482794 -0.58398497 0.25388759 0
-1.0376331 -0.58645558 0.26293755 0
-1.0340679 -0.58167613 0.26625311 0
-1.0172434 -0.59085631 0.28028679 0
-1.0113139 -0.58872437 0.28550547 0
-1.0044693 -0.58762407 0.29146057 0
-0.99537992 -0.58901763 0.29922336 0
-0.98733556 -0.58938479 0.3061378 0
-0.98331279 -0.58542681 0.30980605 0
-0.97604996 -0.58507657 0.31608331 0
-0.96834064 -0.5853045 0.32271606 0
-0.95326209 -0.59392786 0.33527321 0
-0.95120096 -0.58798277 0.3373518 0
-0.94760615 -0.58377624 0.34066379 0
-0.93857193 -0.58587003 0.34834361 0
-0.92727858 -0.59071624 0.35783041 0
-0.91905743 -0.59211111 0.36484492 0
-0.91517705 -0.58845878 0.36837494 0
-0.90300816 -0.59473991 0.3785435 0
-0.90158498 -0.58823824 0.38010061 0
-0.89379209 -0.58945441 0.38675511 0
-0.88857198 -0.58760977 0.39134777 0
-0.88251442 -0.58684587 0.3966074 0
-0.87161875 -0.59218359 0.40572655 0
-0.86779684 -0.58878016 0.4091934 0
-0.85898852 -0.59172356 0.41663539 0
-0.85124284 -0.59342909 0.42322433 0
-0.84635812 -0.59154058 0.42753017 0
-0.83816117 -0.59400487 0.43446946 0
-0.83683491 -0.58755755 0.43594027 0
-0.82622766 -0.59336388 0.44478703 0
-0.82275444 -0.5898087 0.44796121 0
-0.81641662 -0.59012079 0.45340753 0
-0.81124842 -0.58891749 0.45792294 0
-0.80190778 -0.5934782 0.4657414 0
-0.79272634 -0.59796381 0.47342646 0
-0.79575819 -0.58557248 0.4714433 0
-0.7825973 -0.59579253 0.48226655 0
-0.77852064 -0.59337711 0.48590291 0
-0.77418447 -0.59135592 0.48974264 0
-0.76683515 -0.5937084 0.49595726 0
-0.76306409 -0.59096229 0.49934685 0
-0.76602978 -0.5783546 0.49743187 0
-0.76039481 -0.57831287 0.50229037 0
-0.76181197 -0.56781578 0.50160253 0
-0.76391572 -0.55616891 0.50038159 0
-0.76674336 -0.54328704 0.49859941 0
-1.085785 -0.04639411 0.24889016 0
-1.0772003 -0.046648264 0.25627613 0
-1.0823182 -0.025671244 0.25293159 0
-1.0790277 -0.017627001 0.25617647 0
-1.0814068 -0.00055932999 0.25499344 0
-1.0827922 0.015123129 0.25459671 0
-1.087245 0.035924673 0.25181645 0
-1.0832646 0.043288946 0.25562125 0
-1.0838169 0.058116436 0.25589907 0
-1.0858985 0.075636625 0.25499552 0
-1.0903852 0.097378969 0.25223392 0
-1.0868649 0.10593581 0.25570273 0
-1.0905384 0.12675548 0.25359517 0
-1.0967128 0.15212798 0.2495634 0
-1.0926203 0.1601181 0.25349677 0
-1.093136 0.17618203 0.25386894 0
-1.0929883 0.19126773 0.25476307 0
-1.0942851 0.20908618 0.25455111 0
-1.0952322 0.22649837 0.25461996 0
-1.0977265 0.24691677 0.25350833 0
-1.1011277 0.26925492 0.25171232 0
-1.1007191 0.28489375 0.25285959 0
-1.1032405 0.30614877 0.25176686 0
-1.0996718 0.31629443 0.25535822 0
-1.1030561 0.33964992 0.25362873 0
-1.1019841 0.35484147 0.25532472 0
-1.106459 0.38087225 0.25279129 0
-1.1061348 0.39796901 0.25393987 0
-1.1083224 0.42019653 0.25318432 0
-1.1069005 0.43560052 0.25519282 0
-1.1099321 0.46006751 0.2538237 0
-1.1115696 0.48208117 0.2535314 0
-1.112969 0.50391793 0.25343525 0
-1.1114267 0.52002931 0.25558358 0
-1.1137263 0.54428983 0.25483483 0
-1.117064 0.57107186 0.25331968 0
-1.1199603 0.59732556 0.25215805 0
-1.1151624 0.60759521 0.25681514 0
-1.1084691 0.6138823 0.26290339 0
-1.0988215 0.61377454 0.27121276 0
-1.0884864 0.61205363 0.28003258 0
-1.0845796 0.62441182 0.28402787 0
-1.0715041 0.61643147 0.29489136 0
-1.0593164 0.61019206 0.30507827 0
-1.0504143 0.61120915 0.31280231 0
-1.0424441 0.61428666 0.3198278 0
-1.0328144 0.61346936 0.32808572 0
-1.022321 0.6105082 0.33697897 0
-1.0100863 0.60326219 0.34715521 0
-1.0051794 0.6133039 0.35189462 0
-0.9978748 0.61765552 0.35841131 0
-0.98827755 0.61639714 0.36661875 0
-0.97704172 0.61097217 0.37602675 0
-0.9694761 0.61448359 0.3827256 0
-0.96241009 0.61922812 0.38905668 0
-0.94872957 0.60714507 0.40023303 0
-0.94028986 0.60818505 0.40755975 0
-0.93369967 0.61395621 0.41353285 0
-0.9240253 0.61165595 0.42175376 0
-0.91595078 0.61345696 0.42880452 0
-0.90556854 0.60901141 0.43752646 0
-0.89930815 0.61555171 0.44325447 0
-0.88799024 0.60827708 0.45263898 0
-0.88015711 0.61040568 0.45949829 0
-0.86877406 0.60254169 0.46890903 0
-0.86165023 0.60647655 0.47524869 0
-0.85293502 0.60584855 0.48272812 0
-0.84665483 0.61217046 0.48846209 0
-0.83578289 0.60508895 0.49747205 0
-0.83404076 0.62481809 0.49997652 0
-1.0861415 -0.58742118 0.25154573 0
-1.0726302 -0.59223747 0.26252955 0
-1.0642577 -0.59209681 0.26949543 0
-1.062083 -0.58579707 0.27162445 0
-1.0500187 -0.58954263 0.28146029 0
-1.0446067 -0.58661926 0.2861076 0
-1.0354248 -0.58763933 0.29368687 0
-1.0268251 -0.58816028 0.30080783 0
-1.0172471 -0.58981049 0.30868417 0
-1.0092144 -0.58993649 0.31535399 0
-1.0000613 -0.59135318 0.32288915 0
-0.99732453 -0.58594489 0.32543987 0
-0.98838913 -0.5872879 0.33279777 0
-0.97592145 -0.59262407 0.34288776 0
-0.97375488 -0.58670998 0.34499031 0
-0.96749753 -0.58535409 0.35026014 0
-0.95864505 -0.58698583 0.35753453 0
