# .PCD v0.7 - Point Cloud Data file format
VERSION 0.7
FIELDS x y z rgb
SIZE 4 4 4 4
TYPE F F F F
COUNT 1 1 1 1
WIDTH 1294
HEIGHT 1
VIEWPOINT 0 0 0 1 0 0 0
POINTS 1294
DATA ascii
-0.29809496 -0.4846743 0.81858075 0
-0.29787615 -0.48023093 0.82277095 0
-0.29702723 -0.48462489 0.83393693 0
-0.29695863 -0.47809982 0.83645785 0
-0.29625839 -0.48052794 0.84594983 0
-0.29514831 -0.48891649 0.85992914 0
-0.29478082 -0.48675326 0.86571938 0
-0.29448593 -0.4835552 0.87071019 0
-0.29391944 -0.48433653 0.87866694 0
-0.29309869 -0.48892602 0.88938236 0
-0.29298949 -0.48306814 0.89232993 0
-0.29230291 -0.48580578 0.90155298 0
-0.29190141 -0.48433918 0.90766793 0
-0.29112425 -0.48859209 0.91783553 0
-0.29082304 -0.48568982 0.92284751 0
-0.29067564 -0.48042956 0.92620337 0
-0.2896719 -0.48839265 0.93875462 0
-0.28944987 -0.48433337 0.94290048 0
-0.28890786 -0.4852832 0.95046628 0
-0.28836089 -0.48637009 0.95807105 0
-0.28805298 -0.48371354 0.96312141 0
-0.28698289 -0.49327648 0.97624952 0
-0.2870582 -0.48453602 0.97722375 0
-0.28655291 -0.48515055 0.98434085 0
-0.28624013 -0.48266655 0.98942024 0
-0.28566962 -0.48443881 0.99720246 0
-0.28530046 -0.48293632 1.002861 0
-0.28427923 -0.4923532 1.015321 0
-0.28440052 -0.48271602 1.0158463 0
-0.28398845 -0.48202351 1.0219309 0
-0.28315568 -0.48854524 1.0323639 0
-0.28306723 -0.48240352 1.0350807 0
-0.28235734 -0.4869754 1.0442064 0
-0.28220516 -0.48192656 1.0475814 0
-0.28169656 -0.48310661 1.0546131 0
-0.2811361 -0.48526058 1.0621607 0
-0.28118569 -0.47661436 1.0634829 0
-0.28044015 -0.4821533 1.0728936 0
-0.27961433 -0.48926246 1.0830883 0
-0.27919674 -0.48908016 1.0891323 0
-0.27914074 -0.48230183 1.0915325 0
-0.27859798 -0.48445466 1.0988259 0
-0.27803656 -0.4870235 1.1062894 0
-0.27809832 -0.47798619 1.1075289 0
-0.2772342 -0.48633611 1.1179821 0
-0.27706394 -0.48164749 1.1215323 0
-0.27652866 -0.48392111 1.12869 0
-0.27609202 -0.48435965 1.1348616 0
-0.27611575 -0.47588751 1.1365143 0
-0.2750625 -0.48842615 1.1486998 0
-0.27528554 -0.47599417 1.1484201 0
-0.27411792 -0.49106842 1.161653 0
-0.2738871 -0.48763281 1.1657785 0
-0.27370822 -0.48313171 1.1694088 0
-0.27308926 -0.48754781 1.1772646 0
-0.27307421 -0.47968739 1.1793305 0
-0.27255678 -0.48211631 1.186195 0
-0.2717157 -0.49135035 1.1961089 0
-0.27147704 -0.4881275 1.2002972 0
-0.27127767 -0.48405743 1.2041203 0
-0.27073997 -0.48716107 1.2111173 0
-0.27063024 -0.4811613 1.2141061 0
-0.27060115 -0.4733564 1.2163608 0
-0.2694611 -0.48967686 1.2289045 0
-0.26929584 -0.48487055 1.2324102 0
-0.26910615 -0.48056075 1.2361503 0
-0.26959759 -0.46101341 1.2336876 0
-0.26988432 -0.44579065 1.2331493 0
-0.2696583 -0.44198194 1.2372936 0
-0.2700246 -0.42460543 1.2361188 0
-0.2700648 -0.41449279 1.2379205 0
-0.26971686 -0.41326439 1.2432102 0
-0.27043304 -0.38712865 1.2390682 0
-0.27068767 -0.37149259 1.2390881 0
-0.27088788 -0.35692698 1.2396387 0
-0.27107176 -0.3425442 1.2403805 0
-0.27102137 -0.33362368 1.243204 0
-0.27110469 -0.32132298 1.2449008 0
-0.27165201 -0.29743177 1.2426574 0
-0.27192071 -0.2800824 1.2428787 0
-0.27185518 -0.27083516 1.2459966 0
-0.27140021 -0.27129078 1.2524276 0
-0.27233863 -0.23631987 1.2471708 0
-0.27267888 -0.21613511 1.247031 0
-0.27219766 -0.21690622 1.2537656 0
-0.27264819 -0.19338337 1.2528261 0
-0.27293348 -0.17383431 1.2533262 0
-0.2731334 -0.15624389 1.2545929 0
-0.27358711 -0.13156529 1.2538799 0
-0.27357337 -0.11912844 1.2570038 0
-0.27422389 -0.088363841 1.2548946 0
-0.27382556 -0.085973293 1.2611815 0
-0.27436319 -0.057550985 1.260144 0
-0.27434281 -0.044296116 1.2635558 0
-0.27504414 -0.010392916 1.2614551 0
-0.27518851 0.0081883073 1.2637529 0
-0.27515566 0.021971334 1.2674685 0
-0.27564794 0.051273383 1.267289 0
-0.27618775 0.082495831 1.2668787 0
-0.27625757 0.10033199 1.2700725 0
-0.27677304 0.13183266 1.2700775 0
-0.27704951 0.15667936 1.2719511 0
-0.27711582 0.17555621 1.2754402 0
-0.27753288 0.20559353 1.2765151 0
-0.27814189 0.24217643 1.2763715 0
-0.27829224 0.26501969 1.2795866 0
-0.27878821 0.29927915 1.2805208 0
-0.27896786 0.32404312 1.2837662 0
-0.27932397 0.35500503 1.2859344 0
-0.28007773 0.39961061 1.285599 0
-0.2803503 0.42917234 1.2886385 0
-0.28080055 0.46527135 1.2906623 0
-0.2810598 0.49563879 1.2940829 0
-0.37414461 -0.92675722 -0.0034575462 0
-0.3740989 -0.91908789 -0.0013779402 0
-0.37288058 -0.91637564 0.013527513 0
-0.37438637 -0.9021045 -0.0013529062 0
-0.3737182 -0.89709318 0.0075296164 0
-0.37389129 -0.88844705 0.0072274208 0
-0.37450868 -0.87779808 0.0020904541 0
-0.37476522 -0.86869287 0.00089681149 0
-0.37520355 -0.85872167 -0.0022662878 0
-0.3747949 -0.85258222 0.0037844181 0
-0.37502277 -0.84351367 0.0029209852 0
-0.37580377 -0.83180857 -0.0039321184 0
-0.37552375 -0.82504654 0.00072741508 0
-0.3760882 -0.81424379 -0.003754735 0
-0.37545526 -0.80917788 0.0047236681 0
-0.37610605 -0.79786444 -0.00067329407 0
-0.37624502 -0.78900391 -0.00053060055 0
-0.37637198 -0.78017223 -0.00025224686 0
-0.37664723 -0.77055907 -0.0015645027 0
-0.37686783 -0.76117873 -0.0022797585 0
-0.37674668 -0.75352371 0.00068700314 0
-0.37719125 -0.7429089 -0.0024200678 0
-0.37685007 -0.73637283 0.0029152632 0
-0.37783524 -0.72278684 -0.0059666634 0
-0.3772946 -0.7172876 0.0015114546 0
-0.37832239 -0.70330143 -0.0077923536 0
-0.37771773 -0.69814467 0.0003708601 0
-0.3770515 -0.69337308 0.0091826916 0
-0.37842467 -0.6772393 -0.0037603378 0
-0.37852222 -0.66814286 -0.0030816793 0
-0.37804282 -0.66230512 0.0037420988 0
-0.378867 -0.64898962 -0.0032964945 0
-0.37923089 -0.63823736 -0.0054248571 0
-0.37937766 -0.62869567 -0.0052375793 0
-0.37946755 -0.61945122 -0.0044388771 0
-0.37900561 -0.61347061 0.0022081137 0
-0.37951428 -0.60166121 -0.0014140606 0
-0.38026801 -0.58827817 -0.0076090097 0
-0.37888825 -0.58789164 0.0087324381 0
-0.37980023 -0.57342738 0.00088953972 0
-0.38038129 -0.56090415 -0.0034425259 0
-0.38015902 -0.55335766 0.00069403648 0
-0.38086569 -0.53989518 -0.0049299002 0
-0.38149256 -0.52683759 -0.0096944571 0
-0.3818866 -0.51518834 -0.011997819 0
-0.38080812 -0.51308823 0.0011360645 0
-0.38128766 -0.5008105 -0.0020486116 0
-0.3820067 -0.48685533 -0.0077195168 0
-0.38167113 -0.47985962 -0.0023581982 0
-0.38229635 -0.46637231 -0.0070171356 0
-0.38120332 -0.46450141 0.0062423944 0
-0.38224959 -0.44800833 -0.0027754307 0
-0.38237882 -0.43772247 -0.0022313595 0
-0.38262075 -0.42659968 -0.0028475523 0
-0.38287193 -0.41534945 -0.0035467148 0
-0.3830424 -0.40460837 -0.0033977032 0
-0.38348907 -0.39183116 -0.0060948133 0
-0.38339844 -0.38285008 -0.0032216311 0
-0.38339776 -0.37318668 -0.0012718439 0
-0.3835389 -0.36244485 -0.00077629089 0
-0.38419554 -0.34782925 -0.0055786371 0
-0.38394079 -0.33990213 -0.00098264217 0
-0.38458049 -0.32523355 -0.0055749416 0
-0.38405007 -0.31932634 0.0018641949 0
-0.38456142 -0.30547532 -0.0013792515 0
-0.38542205 -0.2888276 -0.0081777573 0
-0.38487247 -0.28299108 -0.00052690506 0
-0.38491467 -0.27254465 0.0010752678 0
-0.38558495 -0.25709161 -0.0037196875 0
-0.35558385 -0.48552039 0.30399489 0
-0.35449713 -0.48580763 0.31674623 0
-0.35378689 -0.48315147 0.32565153 0
-0.35289305 -0.48204207 0.33641016 0
-0.35222226 -0.47917676 0.34489226 0
-0.35005003 -0.48877481 0.36856747 0
-0.34914637 -0.48803917 0.37936664 0
-0.34792185 -0.49007517 0.39339113 0
-0.34749496 -0.48548082 0.39934647 0
-0.34693569 -0.48203012 0.40663147 0
-0.34551811 -0.48598662 0.42254567 0
-0.34478408 -0.48417109 0.43156266 0
-0.34392747 -0.48348033 0.44179797 0
-0.34317774 -0.48192328 0.45094812 0
-0.34157544 -0.48797184 0.46861863 0
-0.34096065 -0.48538414 0.47638512 0
-0.33995759 -0.48632643 0.48801899 0
-0.33872595 -0.48943156 0.50191247 0
-0.33805776 -0.48752129 0.51017213 0
-0.33777931 -0.48207846 0.51454818 0
-0.33692357 -0.48197508 0.52465558 0
-0.33589804 -0.4835293 0.53643143 0
-0.33430904 -0.4904747 0.55376458 0
-0.33433485 -0.48231477 0.55510068 0
-0.3333137 -0.48408842 0.56678033 0
-0.33288342 -0.48028615 0.57261634 0
-0.33152926 -0.48543769 0.58754253 0
-0.33052135 -0.48736161 0.59903598 0
-0.33027273 -0.48193029 0.60305786 0
-0.32937446 -0.48291302 0.61344826 0
-0.32870537 -0.48169568 0.62157917 0
-0.3277055 -0.48384818 0.63293219 0
-0.32651269 -0.48804948 0.64614761 0
-0.32587928 -0.48668396 0.65388799 0
-0.32529673 -0.48484319 0.66112459 0
-0.32440466 -0.48623738 0.67135918 0
-0.32373303 -0.48542371 0.67943931 0
-0.32338452 -0.48127615 0.68438041 0
-0.32247359 -0.48306847 0.69475794 0
-0.32235521 -0.47652435 0.69746828 0
-0.32075375 -0.48582715 0.71447474 0
-0.32021266 -0.4838917 0.72124171 0
-0.31958941 -0.4828817 0.72879082 0
-0.31870508 -0.48477417 0.73883432 0
-0.31759229 -0.48927107 0.75104696 0
-0.3173947 -0.483735 0.75448847 0
-0.31628004 -0.48842931 0.76668346 0
-0.31638867 -0.47947696 0.76720214 0
-0.31537849 -0.48314038 0.77837288 0
-0.3143371 -0.48727012 0.78981769 0
-0.31362909 -0.48768148 0.79808033 0
-0.31327236 -0.48408559 0.80300808 0
-0.31279445 -0.48190704 0.80907905 0
-0.31225133 -0.48051882 0.8157596 0
-0.31102318 -0.48727497 0.82887822 0
-0.31070957 -0.48327875 0.83337754 0
-0.30994582 -0.4846842 0.84209716 0
-0.30935523 -0.48406965 0.84918243 0
-0.30836344 -0.48838601 0.86000502 0
-0.30807108 -0.48423514 0.86428493 0
-0.30743098 -0.4843742 0.87180209 0
-0.3068952 -0.48326793 0.87833959 0
-0.30643594 -0.48123786 0.88416076 0
-0.30569965 -0.48272726 0.89254028 0
-0.3053267 -0.47966781 0.8975513 0
-0.30428946 -0.48512346 0.90868074 0
-0.30383506 -0.48318759 0.91442567 0
-0.30294466 -0.48693916 0.9241668 0
-0.30341738 -0.47294918 0.92140633 0
-0.30201232 -0.4835647 0.93583459 0
-0.30103123 -0.48875141 0.94635594 0
-0.30075455 -0.48463848 0.95044434 0
-0.29969358 -0.49107972 0.96165484 0
-0.29973811 -0.48265657 0.96282285 0
-0.29914844 -0.48282799 0.96973908 0
-0.29891574 -0.47813115 0.97342569 0
-0.29787675 -0.48459801 0.98437279 0
-0.29756099 -0.48109725 0.98879832 0
-0.29640341 -0.48944154 1.0007656 0
-0.29626882 -0.4834449 1.0035571 0
-0.29575205 -0.48286408 1.009765 0
-0.29531002 -0.48124298 1.0153011 0
-0.29477391 -0.48100519 1.0216678 0
-0.29444122 -0.4778358 1.026226 0
-0.29266468 -0.49590945 1.0435339 0
-0.29263574 -0.48838738 1.0453873 0
-0.29244787 -0.48316789 1.0486506 0
-0.29175591 -0.48549676 1.0563383 0
-0.29124165 -0.48520926 1.062458 0
-0.29087925 -0.48263833 1.0672463 0
-0.29086536 -0.47470614 1.0690041 0
-0.28923279 -0.49179393 1.084813 0
-0.28957081 -0.47839344 1.0835215 0
-0.28831896 -0.4898577 1.0959733 0
-0.2881301 -0.4846749 1.099241 0
-0.28704977 -0.49370065 1.1101606 0
-0.28699523 -0.48638368 1.1122744 0
-0.28662422 -0.48412761 1.1171007 0
-0.28660852 -0.47606471 1.1189063 0
-0.28561661 -0.48400441 1.1290022 0
-0.28567773 -0.47461513 1.1301684 0
-0.28496611 -0.47805265 1.1378655 0
-0.28388196 -0.48786572 1.1486723 0
-0.28391749 -0.47883293 1.1500688 0
-0.2829867 -0.48625386 1.1595488 0
-0.28234932 -0.48876128 1.1665577 0
-0.28185779 -0.48880517 1.1723423 0
-0.28173167 -0.48247439 1.1751013 0
-0.280857 -0.48931754 1.1840359 0
-0.28083724 -0.48106378 1.1859274 0
-0.28052002 -0.47805852 1.1902704 0
-0.27983883 -0.48163393 1.1975813 0
-0.27918169 -0.48486236 1.2046781 0
-0.27866068 -0.48567113 1.2106564 0
-0.27843899 -0.48097208 1.2142143 0
-0.27828941 -0.47487959 1.2172017 0
-0.27727997 -0.48494527 1.2270766 0
-0.27727169 -0.4761638 1.2289392 0
-0.27594039 -0.49265143 1.2413179 0
-0.27596635 -0.48319045 1.242913 0
-0.2755357 -0.48251072 1.2481256 0
-0.27507111 -0.48252001 1.2536001 0
-0.27415958 -0.49142852 1.2625538 0
-0.27437475 -0.4779765 1.2627212 0
-0.27480799 -0.45992446 1.2612426 0
-0.27512234 -0.44401214 1.2607353 0
-0.27505684 -0.43565506 1.2631869 0
-0.27517384 -0.42340454 1.2642699 0
-0.27518752 -0.41312954 1.2661735 0
-0.2756224 -0.39382848 1.2649266 0
-0.2756142 -0.3836394 1.2670711 0
-0.27593586 -0.36622372 1.2667797 0
-0.27602658 -0.3535271 1.2682621 0
-0.27676019 -0.3265931 1.265028 0
-0.27666551 -0.3174572 1.2679799 0
-0.27675372 -0.30412146 1.2696207 0
-0.27660304 -0.29593483 1.2730421 0
-0.27670485 -0.28190994 1.2746605 0
-0.27722961 -0.25798827 1.2732829 0
-0.27737698 -0.24236061 1.2746868 0
-0.27758166 -0.22513604 1.2757356 0
-0.27761501 -0.211647 1.2780533 0
-0.27789557 -0.19206616 1.278682 0
-0.27790785 -0.17857173 1.2812492 0
-0.2784377 -0.15232375 1.280279 0
-0.2786153 -0.13420548 1.281827 0
-0.27887341 -0.1137782 1.2828898 0
-0.27926186 -0.089731805 1.2831438 0
-0.2796936 -0.064150266 1.283196 0
-0.27950579 -0.053841926 1.2874815 0
-0.27981222 -0.030664692 1.2885274 0
-0.28012502 -0.0068845116 1.2896199 0
-0.28065324 0.022998258 1.2893993 0
-0.28097779 0.04807042 1.2906132 0
-0.28088596 0.062490437 1.2945932 0
-0.28140771 0.093773291 1.2947303 0
-0.28163326 0.11758956 1.2968585 0
-0.28216341 0.15029846 1.297183 0
-0.28254685 0.17958191 1.2985488 0
-0.28267688 0.20231582 1.3015848 0
-0.28276169 0.22422406 1.3049883 0
-0.28321528 0.25722644 1.3062747 0
-0.28373212 0.29278126 1.3073282 0
-0.28432783 0.33143467 1.3080748 0
-0.2843695 0.35439476 1.3121979 0
-0.28507823 0.39799532 1.3126069 0
-0.28530428 0.42782971 1.3159384 0
-0.28599942 0.47283405 1.3167893 0
-0.28632194 0.50721645 1.3198977 0
-0.3967157 -0.92996258 0.0053243637 0
-0.39779314 -0.91816431 -0.0034941435 0
-0.39655519 -0.9147805 0.009724021 0
-0.39785549 -0.90203577 -0.0011911392 0
-0.39814806 -0.8929618 -0.0025162697 0
-0.39803612 -0.88539076 2.1457672e-06 0
-0.39766073 -0.87883341 0.0050179958 0
-0.39812446 -0.86901677 0.0020856857 0
-0.39960235 -0.85513526 -0.010429621 0
-0.39942652 -0.84771496 -0.0072883368 0
-0.39912957 -0.84078479 -0.0030026436 0
-0.39896449 -0.8333258 3.6239624e-05 0
-0.39985007 -0.82152224 -0.0068283081 0
-0.39941138 -0.81515592 -0.0012030602 0
-0.39941156 -0.80695832 0.00028848648 0
-0.39961421 -0.79787797 -0.00012040138 0
-0.39948115 -0.7902106 0.002630949 0
-0.39946538 -0.7820251 0.0042822361 0
-0.40060338 -0.76873457 -0.0048807859 0
-0.39954239 -0.76511848 0.006578207 0
-0.40060472 -0.7520206 -0.0018497705 0
-0.40039402 -0.74459583 0.0016479492 0
-0.40021899 -0.73700559 0.0048120022 0
-0.40101707 -0.72489351 -0.001105547 0
-0.40150735 -0.71412879 -0.0041357279 0
-0.40016171 -0.7119922 0.0099513531 0
-0.40181619 -0.69560874 -0.0039061308 0
-0.401972 -0.68628693 -0.003793478 0
-0.40157893 -0.67960453 0.001424551 0
-0.4025104 -0.66641134 -0.005653739 0
-0.40190151 -0.66076708 0.0015724897 0
-0.40179718 -0.65262276 0.0041179657 0
-0.40275905 -0.63905889 -0.0032025576 0
-0.40234852 -0.63240063 0.0021896362 0
-0.40305305 -0.61999625 -0.002722621 0
-0.40230465 -0.6150732 0.0057922602 0
-0.40297735 -0.6027174 0.0011953115 0
-0.40322113 -0.5925473 0.00056636333 0
-0.40366578 -0.58124894 -0.0019017458 0
-0.40354744 -0.57292455 0.00081932545 0
-0.40398625 -0.5615418 -0.0015740395 0
-0.40303725 -0.55772978 0.0087805986 0
-0.4039003 -0.54391319 0.0025120974 0
-0.40509245 -0.5281356 -0.0067495108 0
-0.40485358 -0.52030301 -0.0028910637 0
-0.40445387 -0.51338059 0.0024389029 0
-0.40546516 -0.4983446 -0.0051167011 0
-0.40472537 -0.49334177 0.0033255816 0
-0.40556163 -0.47915041 -0.0026022196 0
-0.40533063 -0.47114527 0.0012074709 0
-0.40625319 -0.45625699 -0.0054715872 0
-0.40576631 -0.44970888 0.00067734718 0
-0.40561125 -0.4411647 0.0038121939 0
-0.4060359 -0.4290579 0.0016951561 0
-0.40698588 -0.41363308 -0.0051654577 0
-0.40697792 -0.4040263 -0.003334403 0
-0.40752694 -0.39089203 -0.0065306425 0
-0.40759867 -0.3806788 -0.0054003 0
-0.40640283 -0.37849468 0.007170558 0
-0.4073168 -0.36284342 0.00071787834 0
-0.40819287 -0.3473005 -0.0053688288 0
-0.40731904 -0.34305102 0.0043002367 0
-0.40776789 -0.33014557 0.0020822287 0
-0.40868455 -0.31404462 -0.0043159723 0
-0.40823632 -0.30693465 0.0015419722 0
-0.40960407 -0.28758097 -0.0088555813 0
-0.40889803 -0.28213379 -0.00067615509 0
-0.40936437 -0.26868403 -0.0029730797 0
-0.40908656 -0.26027769 0.0013860464 0
-0.375332 -0.48495159 0.30406392 0
-0.37406337 -0.48531312 0.31691229 0
-0.3731395 -0.48333737 0.32667649 0
-0.37241578 -0.47999781 0.33465242 0
-0.36993679 -0.48931104 0.35819066 0
-0.37025476 -0.47860879 0.35690367 0
-0.36874688 -0.48115444 0.37178922 0
-0.36734432 -0.48305547 0.38572001 0
-0.36684525 -0.47837925 0.39165211 0
-0.36485338 -0.48486811 0.41074657 0
-0.3633827 -0.48762211 0.42521596 0
-0.36275995 -0.48407257 0.43220186 0
-0.36144611 -0.48583496 0.4452548 0
-0.36075991 -0.48287472 0.45277917 0
-0.35874778 -0.49024147 0.47191978 0
-0.35792878 -0.48847333 0.48057878 0
-0.35673174 -0.48973727 0.49253392 0
-0.35664696 -0.48227096 0.49475718 0
-0.3559674 -0.47952783 0.50217462 0
-0.35392788 -0.48778161 0.5214324 0
-0.35353351 -0.48287973 0.52633977 0
-0.35244372 -0.48366955 0.53728902 0
-0.35215679 -0.47793019 0.54125547 0
-0.35069293 -0.48195359 0.55542421 0
-0.35004389 -0.47929493 0.56251538 0
-0.34796685 -0.48870626 0.58194399 0
-0.34734714 -0.48595655 0.58875358 0
-0.34729981 -0.47834089 0.59062254 0
-0.34635228 -0.47844169 0.60024941 0
-0.34451187 -0.48636776 0.61754048 0
-0.34399003 -0.4829478 0.62347531 0
-0.3429465 -0.48414356 0.63388002 0
-0.34242481 -0.48079345 0.63980079 0
-0.34158015 -0.48034996 0.64847994 0
-0.34101576 -0.47744241 0.65475464 0
-0.33935651 -0.4844946 0.67036045 0
-0.33841464 -0.48515895 0.67982721 0
-0.33811322 -0.48000047 0.68383509 0
-0.336797 -0.48424485 0.69646043 0
-0.3362923 -0.4810324 0.70218349 0
-0.33465505 -0.48849753 0.71749002 0
-0.33492425 -0.47805718 0.71665138 0
-0.33295873 -0.48887208 0.73468935 0
-0.33278823 -0.48263568 0.73756093 0
-0.33161598 -0.48607826 0.7488668 0
-0.33064613 -0.48765615 0.75845206 0
-0.32981005 -0.4880009 0.7669 0
-0.32958466 -0.48236012 0.77022213 0
-0.32805681 -0.48969406 0.78443885 0
-0.32768059 -0.48561636 0.78901154 0
-0.32764134 -0.4781239 0.79077566 0
-0.32592493 -0.48768771 0.80650544 0
-0.32560647 -0.48308426 0.81058615 0
-0.32530555 -0.4782882 0.81452322 0
-0.32453308 -0.47839421 0.82236719 0
-0.32330352 -0.48335835 0.83397919 0
-0.32251757 -0.48375714 0.84190691 0
-0.32167929 -0.48477432 0.85025501 0
-0.32145497 -0.479269 0.85354143 0
-0.32054639 -0.48113647 0.8624503 0
-0.31987768 -0.48047096 0.86937839 0
-0.31900215 -0.48211864 0.87799048 0
-0.31850028 -0.47971246 0.88353777 0
-0.31745934 -0.48332572 0.89347577 0
-0.31702554 -0.48023328 0.89845532 0
-0.31601918 -0.48361653 0.90808326 0
-0.31538403 -0.48287389 0.91468394 0
-0.31451488 -0.48485458 0.92317057 0
-0.31403369 -0.48243156 0.92851025 0
-0.31285924 -0.48809204 0.93943465 0
-0.31274295 -0.48147646 0.94182324 0
-0.31186154 -0.48385039 0.95036328 0
-0.31109989 -0.48488247 0.95792866 0
-0.30998331 -0.49023277 0.96831989 0
-0.30988786 -0.48337623 0.97054082 0
-0.30867663 -0.49004281 0.98165613 0
-0.30848703 -0.48432919 0.98462683 0
-0.30726138 -0.49137515 0.99582011 0
-0.30685467 -0.48837948 1.0005057 0
-0.30665398 -0.4828009 1.0035646 0
-0.30617493 -0.48070055 1.008824 0
-0.30485106 -0.4893682 1.0207217 0
-0.30444577 -0.48642859 1.0253826 0
-0.30409268 -0.48281461 1.0296354 0
-0.30291104 -0.48997816 1.0403585 0
-0.30254668 -0.48657191 1.0446885 0
-0.30252576 -0.47861454 1.0463507 0
-0.30130181 -0.48660693 1.057354 0
-0.30148429 -0.4758825 1.0574503 0
-0.29976365 -0.49078259 1.0722511 0
-0.29980254 -0.48196664 1.0734615 0
-0.29900163 -0.48459285 1.0811355 0
-0.29809821 -0.48872238 1.0895801 0
-0.29778743 -0.48468611 1.0934789 0
-0.29759818 -0.47891793 1.0964559 0
-0.29710674 -0.47738323 1.101738 0
-0.29659581 -0.47614342 1.1071649 0
-0.29552731 -0.48295221 1.1168014 0
-0.29517514 -0.47951302 1.1210129 0
-0.29484922 -0.47567418 1.1250296 0
-0.29380414 -0.48241755 1.1344399 0
-0.29361457 -0.4765926 1.1374307 0
-0.2922177 -0.48880002 1.1494265 0
-0.29158142 -0.48975512 1.1557293 0
-0.29155487 -0.48148218 1.1575071 0
-0.29088968 -0.48291275 1.1640174 0
-0.2903055 -0.48315102 1.1699206 0
-0.28965762 -0.4844245 1.1762838 0
-0.28920996 -0.48260635 1.1811721 0
-0.28862923 -0.48290524 1.1870294 0
-0.28806105 -0.48304412 1.1927876 0
-0.2876364 -0.48090804 1.1974998 0
-0.28714567 -0.47984549 1.2026882 0
-0.2857089 -0.4943094 1.2146792 0
-0.28555858 -0.48778623 1.2173977 0
-0.2852816 -0.4832994 1.2210348 0
-0.28483349 -0.48164719 1.2258972 0
-0.28362238 -0.49293908 1.2361685 0
-0.28404862 -0.4764576 1.2348323 0
-0.28291744 -0.48658982 1.2445011 0
-0.2826249 -0.48234046 1.2482531 0
-0.28188333 -0.48593152 1.2551479 0
-0.28188366 -0.47648275 1.256866 0
-0.28095388 -0.48351336 1.2650497 0
-0.28032809 -0.48522407 1.2711083 0
-0.28031838 -0.47579777 1.2729244 0
-0.27954352 -0.48026934 1.2799976 0
-0.27932447 -0.47456667 1.2832661 0
-0.27987835 -0.45435706 1.2813091 0
-0.2793549 -0.45411518 1.2866819 0
-0.27929717 -0.44504264 1.2889222 0
-0.2802231 -0.41695333 1.2846134 0
-0.27977443 -0.4150047 1.2895355 0
-0.28026974 -0.39459395 1.2882118 0
-0.28011549 -0.3866519 1.2912287 0
-0.28061938 -0.36547855 1.2899561 0
-0.2809906 -0.34660366 1.2896155 0
-0.28103563 -0.33402357 1.2914488 0
-0.2810955 -0.32092914 1.2932246 0
-0.28101644 -0.31049013 1.2959311 0
-0.2814815 -0.28850436 1.295202 0
-0.2818338 -0.26849815 1.2952602 0
-0.2818675 -0.25492114 1.29739 0
-0.28237936 -0.23081036 1.296572 0
-0.28255463 -0.21356836 1.2979288 0
-0.28305531 -0.18885984 1.297333 0
-0.28267443 -0.1832483 1.3022323 0
-0.28342423 -0.15219809 1.300256 0
-0.28322923 -0.14194542 1.3041084 0
-0.28367877 -0.11675479 1.3041211 0
-0.28365752 -0.10196019 1.3070323 0
-0.28450787 -0.066502005 1.3048357 0
-0.28428811 -0.055610802 1.3090563 0
-0.28463355 -0.031015439 1.3100204 0
-0.28511614 -0.0026045684 1.3102834 0
-0.28523493 0.017513227 1.3127388 0
-0.28590298 0.051606581 1.3121488 0
-0.28568369 0.064271174 1.3166881 0
-0.28589469 0.088053599 1.3188725 0
-0.28653276 0.12325319 1.3187891 0
-0.2870872 0.1570693 1.3193053 0
-0.28725857 0.18162405 1.3220336 0
-0.28795215 0.22053136 1.3220609 0
-0.28793752 0.24137352 1.3260067 0
-0.28798878 0.26446557 1.3296911 0
-0.28880233 0.308979 1.329518 0
-0.28984457 0.36089391 1.3283656 0
-0.29054514 0.40446028 1.3291703 0
-0.29142433 0.45416445 1.3292745 0
-0.29260084 0.51365536 1.3281355 0
-0.42863148 -0.92591608 -0.0017180443 0
-0.42884099 -0.91728044 -0.002114296 0
-0.42839092 -0.91067773 0.0028100014 0
-0.42844504 -0.90249801 0.0036710501 0
-0.42958739 -0.89080977 -0.0042215586 0
-0.4293116 -0.88361949 -0.00069499016 0
-0.42915392 -0.8760469 0.0018820763 0
-0.43048429 -0.86352676 -0.0074862242 0
-0.42919117 -0.85970396 0.0042095184 0
-0.42926586 -0.85131437 0.0049282312 0
-0.43085849 -0.83768201 -0.0065066814 0
-0.43027672 -0.83146942 -0.0005171299 0
-0.43084913 -0.82122529 -0.0037612915 0
-0.42946362 -0.81788003 0.0086483955 0
-0.42992103 -0.80799866 0.0063302517 0
-0.43032151 -0.79826897 0.0044751167 0
-0.43110129 -0.78709477 -0.00039446354 0
-0.43161833 -0.77681422 -0.0031586885 0
-0.43174738 -0.76792824 -0.0028253794 0
-0.4321931 -0.75781006 -0.0050047636 0
-0.43253455 -0.74803412 -0.0063465834 0
-0.43212947 -0.74110103 -0.0017539263 0
-0.43218887 -0.73236006 -0.00084722042 0
-0.43160397 -0.72613871 0.0051701069 0
-0.43210492 -0.71560538 0.0025850534 0
-0.43165258 -0.70885313 0.007552743 0
-0.43290776 -0.69515657 -0.00098085403 0
-0.43257633 -0.68786293 0.00303936 0
-0.43373474 -0.67437947 -0.0047001839 0
-0.4327659 -0.6697036 0.0043559074 0
-0.43346512 -0.65801263 0.00025951862 0
-0.43361306 -0.64859653 0.0005171299 0
-0.43375835 -0.63915318 0.0008020401 0
-0.43342984 -0.63173681 0.0048167706 0
-0.43321332 -0.62382698 0.0079522133 0
-0.43361786 -0.61314672 0.0062166452 0
-0.43397585 -0.60261279 0.0048558712 0
-0.43420926 -0.59258389 0.0044803619 0
-0.43472892 -0.5811972 0.0018730164 0
-0.4352192 -0.5698725 -0.00049269199 0
-0.43488941 -0.56229228 0.0035597086 0
-0.43630192 -0.54652464 -0.0059864521 0
-0.43449551 -0.54586244 0.009594202 0
-0.4353793 -0.53245568 0.0041946173 0
-0.43608132 -0.51981771 0.00022804737 0
-0.43682832 -0.50686663 -0.0040735006 0
-0.43598482 -0.50162905 0.0039998293 0
-0.43698403 -0.4872987 -0.0022386312 0
-0.43658391 -0.47984141 0.0023962259 0
-0.43789357 -0.46376121 -0.0062180758 0
-0.43717495 -0.45784688 0.00089514256 0
-0.43697441 -0.44930002 0.0039968491 0
-0.43849504 -0.43182659 -0.0061990023 0
-0.43776932 -0.42590407 0.00097632408 0
-0.43806833 -0.41461346 0.00024318695 0
-0.43813226 -0.40450406 0.0013327599 0
-0.43839312 -0.39329433 0.00091362 0
-0.4397862 -0.37590834 -0.0082037449 0
-0.43944475 -0.36779633 -0.0039653778 0
-0.43893233 -0.36061183 0.0015869141 0
-0.4389424 -0.3505387 0.003131628 0
-0.43929005 -0.33853713 0.0020973682 0
-0.43945578 -0.32748333 0.0024678707 0
-0.44068703 -0.31032321 -0.0052999258 0
-0.44064501 -0.30028591 -0.0033149719 0
-0.44087237 -0.28865257 -0.0033783913 0
-0.44015771 -0.28242713 0.0037513971 0
-0.44088522 -0.26776794 -0.0001064539 0
-0.44071811 -0.25827643 0.0028613806 0
-0.40164056 -0.48050746 0.30160427 0
-0.399189 -0.48652571 0.32162917 0
-0.39832973 -0.48310128 0.32954383 0
-0.39734778 -0.48046663 0.33838201 0
-0.39513716 -0.48543918 0.35651219 0
-0.39368755 -0.48586789 0.36885977 0
-0.39243701 -0.48515216 0.37968719 0
-0.39119589 -0.48445687 0.39043128 0
-0.38959128 -0.4861474 0.40390229 0
-0.38802677 -0.48769674 0.41705215 0
-0.38785228 -0.48039937 0.41972876 0
-0.38627148 -0.48221004 0.43297637 0
-0.38482866 -0.48323187 0.44516945 0
-0.38345701 -0.48388565 0.4568131 0
-0.38205576 -0.48483074 0.46866298 0
-0.38076785 -0.48511395 0.47964871 0
-0.37942874 -0.4858298 0.49100316 0
-0.37936193 -0.47798181 0.49284661 0
-0.37645668 -0.48955432 0.51585805 0
-0.37716609 -0.47641164 0.51190937 0
-0.37438357 -0.48745623 0.53395557 0
-0.3733806 -0.4862648 0.54273975 0
-0.37340337 -0.47788137 0.5439018 0
-0.37207514 -0.47906953 0.55508709 0
-0.3704915 -0.48218423 0.5681479 0
-0.36970863 -0.47963148 0.57526708 0
-0.36770529 -0.48600623 0.59139478 0
-0.36688697 -0.48385203 0.59875309 0
-0.36534703 -0.4870753 0.6114217 0
-0.36576012 -0.47586462 0.60969913 0
-0.36371985 -0.48297694 0.62602365 0
-0.36256278 -0.48358604 0.63583636 0
-0.36112928 -0.4863812 0.64766264 0
-0.3609859 -0.47937959 0.65002453 0
-0.35918975 -0.48512957 0.66447854 0
-0.35826209 -0.48426378 0.6725651 0
-0.3572039 -0.48447707 0.68159461 0
-0.35624099 -0.48400649 0.68991929 0
-0.35613227 -0.47678417 0.69201964 0
-0.35361904 -0.48883259 0.71159637 0
-0.35387978 -0.47867897 0.71100712 0
-0.3524788 -0.48198476 0.72247219 0
-0.35152844 -0.48170254 0.73065853 0
-0.35157594 -0.47322178 0.7316249 0
-0.35003608 -0.47791031 0.74405569 0
-0.34804675 -0.48650742 0.75970393 0
-0.34723908 -0.48529461 0.76681846 0
-0.34659114 -0.4827626 0.77277863 0
-0.34643275 -0.47604781 0.77522248 0
-0.3449918 -0.48039138 0.78686231 0
-0.34393826 -0.48148134 0.79570997 0
-0.34257278 -0.48538655 0.8067739 0
-0.34130496 -0.48854443 0.81712252 0
-0.34104872 -0.48278868 0.82024956 0
-0.33930141 -0.4903959 0.83398461 0
-0.33931807 -0.48221147 0.83516717 0
-0.33805925 -0.48558864 0.84540296 0
-0.33770972 -0.48072022 0.84918529 0
-0.33633494 -0.48532176 0.86021614 0
-0.33563799 -0.48372766 0.86644417 0
-0.33442822 -0.48698103 0.87628019 0
-0.33408815 -0.48210609 0.87998247 0
-0.33284605 -0.48581243 0.89002186 0
-0.33127469 -0.49279103 0.9023518 0
-0.33139223 -0.48357871 0.9028365 0
-0.33036286 -0.48546502 0.91134846 0
-0.3297745 -0.48309836 0.91677153 0
-0.32920039 -0.48060554 0.92209291 0
-0.32774734 -0.48689401 0.93352073 0
-0.32741642 -0.48204947 0.93713975 0
-0.32662779 -0.48181751 0.94393265 0
-0.32551906 -0.48489836 0.95293105 0
-0.32562143 -0.47562137 0.9535563 0
-0.32619113 -0.46140915 0.95097774 0
-0.32613185 -0.45359561 0.9527508 0
-0.3268218 -0.43782908 0.94939405 0
-0.32714632 -0.42574319 0.94857109 0
-0.3205432 -0.48753393 0.99512613 0
-0.31990564 -0.48610136 1.0008191 0
-0.31987607 -0.47809735 1.0023683 0
-0.31885949 -0.48080727 1.0106375 0
-0.31776875 -0.4844223 1.0193951 0
-0.31750479 -0.47895896 1.0225408 0
-0.31658694 -0.48077333 1.030109 0
-0.31568056 -0.48253235 1.0375881 0
-0.31503922 -0.48135081 1.043273 0
-0.31372833 -0.48786539 1.0534469 0
-0.31289047 -0.48906547 1.0604296 0
-0.31333852 -0.47536308 1.0588104 0
-0.31223804 -0.47965086 1.0675426 0
-0.31183156 -0.47584519 1.0716405 0
-0.31026715 -0.48582107 1.0834258 0
-0.30988079 -0.48184809 1.0873785 0
-0.30930138 -0.48019096 1.0926099 0
-0.30809927 -0.48614949 1.1019418 0
-0.30814517 -0.47689036 1.1030478 0
-0.30734813 -0.47797856 1.109699 0
-0.30598283 -0.48623198 1.1200576 0
-0.30598083 -0.47747329 1.1214927 0
-0.30490565 -0.48225245 1.1299286 0
-0.30333295 -0.49352586 1.1415744 0
-0.30379111 -0.47878614 1.1400367 0
-0.30266276 -0.48450965 1.1487753 0
-0.30170631 -0.48810863 1.1563849 0
-0.30164194 -0.47999218 1.1582507 0
-0.30113721 -0.47766009 1.1629518 0
-0.29937318 -0.49228758 1.1756933 0
-0.29918176 -0.48584166 1.1783769 0
-0.29858744 -0.48484218 1.1836295 0
-0.29802686 -0.48339739 1.188665 0
-0.29724282 -0.48507911 1.1951087 0
-0.29692382 -0.48029184 1.1986164 0
-0.29624987 -0.48049012 1.2043574 0
-0.29532921 -0.48425451 1.2116336 0
-0.29477733 -0.48280415 1.2165959 0
-0.29433978 -0.47970134 1.2208465 0
-0.29307181 -0.48876628 1.2302397 0
-0.29294845 -0.48108086 1.2325407 0
-0.29182225 -0.48827398 1.2410227 0
-0.29149145 -0.4836441 1.2446063 0
-0.29112649 -0.47948456 1.2484058 0
-0.29056984 -0.47822583 1.2533777 0
-0.28950983 -0.48477244 1.2613974 0
-0.28909135 -0.48144895 1.2655199 0
-0.28816867 -0.48605004 1.2726786 0
-0.2873615 -0.48893154 1.2791262 0
-0.28698385 -0.48500022 1.2829974 0
-0.28619242 -0.48773721 1.2893333 0
-0.28619111 -0.47762764 1.2909815 0
-0.28588939 -0.47232223 1.294425 0
-0.28479159 -0.48022646 1.3025489 0
-0.28367877 -0.48856726 1.3107302 0
-0.28404337 -0.47198313 1.3102926 0
-0.28434128 -0.45625317 1.310288 0
-0.28453964 -0.4419727 1.3109012 0
-0.28442311 -0.43295515 1.3133595 0
-0.28493857 -0.41261774 1.3122376 0
-0.28529865 -0.39468008 1.3120579 0
-0.2858392 -0.37315869 1.3109126 0
-0.28502923 -0.37584004 1.3174168 0
-0.28540862 -0.35671687 1.3172631 0
-0.28582323 -0.33657873 1.316973 0
-0.28608161 -0.31899077 1.3176078 0
-0.28617078 -0.30428037 1.3192259 0
-0.28604794 -0.29336128 1.3220463 0
-0.28612608 -0.2783471 1.3238083 0
-0.28673697 -0.25260395 1.322744 0
-0.28720611 -0.22914651 1.3225238 0
-0.28714204 -0.21588992 1.3252194 0
-0.28712782 -0.20136681 1.327693 0
-0.28764841 -0.17560893 1.3274045 0
-0.28786439 -0.15561493 1.3287925 0
-0.28810048 -0.13478261 1.3301432 0
-0.28827208 -0.11487725 1.3318968 0
-0.28924653 -0.077357158 1.3296255 0
-0.28972739 -0.049693346 1.3299861 0
-0.29052424 -0.014492709 1.3288605 0
-0.29106525 0.015830742 1.3291368 0
-0.29143783 0.043063421 1.330355 0
-0.29274797 0.092209473 1.3270909 0
-0.29239285 0.10423499 1.3320801 0
-0.29376614 0.15674144 1.3288193 0
-0.29447973 0.19497477 1.3288977 0
-0.29525721 0.23565447 1.3288257 0
-0.29608801 0.27862003 1.3286664 0
-0.29722869 0.33023515 1.3272536 0
-0.29779404 0.36888933 1.3286703 0
-0.29855588 0.41345587 1.3293614 0
-0.2998504 0.47272724 1.3278704 0
-0.44797209 -0.92559004 -0.0003247261 0
-0.44728759 -0.9195112 0.0059561729 0
-0.44824523 -0.90875393 0.00011968613 0
-0.44875336 -0.89921939 -0.0023908615 0
-0.4489091 -0.89066875 -0.0022981167 0
-0.44827038 -0.88445431 0.0036455393 0
-0.44960305 -0.87233377 -0.0049126148 0
-0.44892952 -0.86621243 0.0012887716 0
-0.44976327 -0.85547674 -0.0035821199 0
-0.4484342 -0.85140598 0.00742805 0
-0.44916764 -0.84090865 0.0033041239 0
-0.44991571 -0.83029342 -0.0009162426 0
-0.45151305 -0.81686658 -0.011342883 0
-0.44968557 -0.8144747 0.0033060312 0
-0.45022085 -0.80440372 0.00066554546 0
-0.45044047 -0.79532635 0.00033974648 0
-0.45053321 -0.78663993 0.00094544888 0
-0.45168769 -0.77430904 -0.006188035 0
-0.45058429 -0.76964658 0.0031496286 0
-0.45136091 -0.75850111 -0.0012124777 0
-0.45102876 -0.75117522 0.0025060177 0
-0.45239702 -0.73780942 -0.0061401129 0
-0.45154601 -0.73228669 0.0013568401 0
-0.45174187 -0.72300661 0.0012478828 0
-0.45117167 -0.71649498 0.0067015886 0
-0.45339939 -0.6996448 -0.0081273317 0
-0.45150876 -0.6980015 0.0069003105 0
-0.45260274 -0.68520343 0.00031089783 0
-0.45310012 -0.67457318 -0.001947403 0
-0.45347193 -0.66436237 -0.0032889843 0
-0.45482045 -0.65029824 -0.011673927 0
-0.45322284 -0.64767468 0.0012140274 0
-0.45320433 -0.63888335 0.002705574 0
-0.45396018 -0.62696522 -0.0013756752 0
-0.45356208 -0.61962408 0.0028598309 0
-0.45400828 -0.60883987 0.0010249615 0
-0.4536424 -0.60133624 0.0050339699 0
-0.45557138 -0.58429027 -0.0074304342 0
-0.45483652 -0.57824147 -0.00076043606 0
-0.45585138 -0.56480879 -0.0066342354 0
-0.45448205 -0.56145453 0.004581213 0
-0.45541576 -0.54824209 -0.00069189072 0
-0.45521131 -0.5398773 0.0021876097 0
-0.45653516 -0.5247829 -0.0058463812 0
-0.45688459 -0.5138675 -0.0069051981 0
-0.45636776 -0.50676322 -0.0017777681 0
-0.45628664 -0.49769914 0.00024473667 0
-0.45730776 -0.48358899 -0.0055738688 0
-0.4569425 -0.47572646 -0.001514554 0
-0.45709482 -0.46545795 -0.0011321306 0
-0.45772973 -0.45288551 -0.004168272 0
-0.45753223 -0.44414604 -0.0012854338 0
-0.45688188 -0.43753636 0.0048097372 0
-0.45690677 -0.42770296 0.0061215162 0
-0.45772982 -0.41396752 0.0017932653 0
-0.45944488 -0.39577258 -0.0088230371 0
-0.45779407 -0.39394987 0.0043578148 0
-0.45867181 -0.37967983 -0.00031602383 0
-0.45914012 -0.36734128 -0.0020860434 0
-0.45906135 -0.35768008 9.7751617e-06 0
-0.45933038 -0.34621131 -0.00033581257 0
-0.45960197 -0.33466196 -0.00068902969 0
-0.45894471 -0.3278476 0.0054916143 0
-0.45960471 -0.31417397 0.002428174 0
-0.46118343 -0.29556578 -0.0070593357 0
-0.46130875 -0.28447768 -0.0063401461 0
-0.46036816 -0.27902663 0.0018460751 0
-0.46166486 -0.26155311 -0.0056111813 0
-0.460302 -0.25836194 0.0055286884 0
-0.41736257 -0.48291391 0.30671418 0
-0.4165175 -0.47884282 0.31394231 0
-0.4144372 -0.4816775 0.32976627 0
-0.4127982 -0.48217919 0.34249854 0
-0.41174632 -0.47946438 0.35113537 0
-0.40908578 -0.48596904 0.37093186 0
-0.40812096 -0.48292881 0.37893784 0
-0.40723529 -0.47947389 0.38638914 0
-0.40521339 -0.4826861 0.40169859 0
-0.40531898 -0.47352436 0.40227699 0
-0.40509373 -0.46626878 0.40514898 0
-0.40562439 -0.45447001 0.40280914 0
-0.40687361 -0.43824729 0.39553142 0
-0.40703636 -0.42845297 0.3957597 0
-0.3966763 -0.4829632 0.4683764 0
-0.39437595 -0.48872489 0.48547149 0
-0.39377284 -0.48411506 0.49089146 0
-0.39137265 -0.49076635 0.50863063 0
-0.39075148 -0.48637795 0.51415753 0
-0.38987839 -0.48360309 0.52140629 0
-0.3889004 -0.48153648 0.52936602 0
-0.38706499 -0.48505312 0.54317153 0
-0.38544956 -0.48727024 0.55545688 0
-0.38440698 -0.48584324 0.56382394 0
-0.38337326 -0.48441139 0.57212174 0
-0.38356569 -0.47487059 0.57207966 0
-0.38102633 -0.48358351 0.59059107 0
-0.37943944 -0.48606557 0.6026125 0
-0.3779878 -0.48773804 0.61370146 0
-0.37769353 -0.48156595 0.6169467 0
-0.37597138 -0.48524436 0.6298424 0
-0.37434828 -0.48836029 0.64205003 0
-0.37353629 -0.4858996 0.64877319 0
-0.37305075 -0.48116183 0.65329349 0
-0.37180862 -0.48181352 0.66290152 0
-0.37080798 -0.48080912 0.67087543 0
-0.36936891 -0.48302999 0.68178201 0
-0.36767089 -0.48723936 0.69440794 0
-0.36706799 -0.48353517 0.69968718 0
-0.36520618 -0.48915714 0.71337652 0
-0.36448324 -0.48643759 0.71944332 0
-0.36370522 -0.48415467 0.72587323 0
-0.36259311 -0.48443091 0.73452282 0
-0.36245167 -0.47737113 0.73670965 0
-0.36101323 -0.48023397 0.74751252 0
-0.35900047 -0.48764986 0.76210719 0
-0.35973603 -0.47380129 0.75848013 0
-0.35694593 -0.48751333 0.77818495 0
-0.35584933 -0.48808414 0.78666776 0
-0.35563025 -0.48172215 0.78935444 0
-0.35461599 -0.48171589 0.79728222 0
-0.35386223 -0.47965869 0.80348825 0
-0.35258329 -0.48191482 0.81313783 0
-0.35207358 -0.47793922 0.81773049 0
-0.35029748 -0.48445141 0.83061367 0
-0.34984338 -0.48008597 0.83483136 0
-0.34911031 -0.4780573 0.84087133 0
-0.34725046 -0.48560148 0.85425097 0
-0.345918 -0.48881331 0.86417234 0
-0.34572428 -0.48233399 0.86667913 0
-0.34466642 -0.48330057 0.8747986 0
-0.34408316 -0.48019144 0.8798331 0
-0.34249479 -0.48593387 0.89136732 0
-0.34131384 -0.4882043 0.90024865 0
-0.34130841 -0.48006076 0.90153861 0
-0.33902639 -0.49233997 0.91749233 0
-0.33826303 -0.49108335 0.92365092 0
-0.3375805 -0.48911992 0.92928571 0
-0.33693433 -0.4868426 0.93468446 0
-0.33671016 -0.48066485 0.93738306 0
-0.33505613 -0.48781514 0.94921446 0
-0.33529228 -0.47731221 0.94897795 0
-0.3354204 -0.46772283 0.94944561 0
-0.33549672 -0.45853102 0.9502573 0
-0.33546391 -0.45029947 0.95177466 0
-0.335504 -0.4412818 0.95284307 0
-0.33605224 -0.42719629 0.9507159 0
-0.33644998 -0.41442734 0.94956362 0
-0.33722073 -0.39779902 0.94608748 0
-0.33656877 -0.39522448 0.95157713 0
-0.33703038 -0.3814081 0.95008594 0
-0.32544786 -0.49007681 1.0239596 0
-0.32511675 -0.48502627 1.0273211 0
-0.32458076 -0.48206151 1.0319642 0
-0.3235355 -0.48440564 1.0397744 0
-0.3228021 -0.48355395 1.0456363 0
-0.32203865 -0.48305276 1.0516798 0
-0.32138234 -0.48144388 1.0570555 0
-0.32027948 -0.48465973 1.0651822 0
-0.32031417 -0.47563004 1.0662943 0
-0.31835705 -0.48828149 1.0796516 0
-0.31759265 -0.48803207 1.085664 0
-0.31759828 -0.47926345 1.0869633 0
-0.31640384 -0.4838405 1.095597 0
-0.31551188 -0.4851183 1.1023724 0
-0.31480345 -0.48436886 1.1080236 0
-0.31382203 -0.48678398 1.1153239 0
-0.31280214 -0.4897247 1.122844 0
-0.31296936 -0.47890103 1.1231954 0
-0.31151497 -0.48702079 1.1333176 0
-0.31053406 -0.48969942 1.1405736 0
-0.31081313 -0.47738689 1.1402787 0
-0.3094748 -0.48442277 1.1496606 0
-0.30884075 -0.48304725 1.1548263 0
-0.30870992 -0.47551456 1.1570029 0
-0.3076604 -0.47926143 1.1646314 0
-0.30773932 -0.4690288 1.1655823 0
-0.30522972 -0.49124047 1.1817927 0
-0.30546784 -0.47899091 1.1818084 0
-0.30433869 -0.48407558 1.1898539 0
-0.30326784 -0.48853385 1.1975402 0
-0.3031677 -0.48046064 1.1995597 0
-0.30261758 -0.47819671 1.2042056 0
-0.30147892 -0.48373377 1.2122564 0
-0.30155706 -0.47312963 1.2132699 0
-0.30030274 -0.48035631 1.221966 0
-0.29971778 -0.47863442 1.2268013 0
-0.29882038 -0.48121077 1.2334201 0
-0.29779094 -0.48570055 1.240778 0
-0.2971946 -0.48424867 1.2456608 0
-0.29637283 -0.48598841 1.2518167 0
-0.29643166 -0.47524968 1.2530019 0
-0.29505199 -0.48503062 1.2622864 0
-0.29452258 -0.48268905 1.2667824 0
-0.29354519 -0.48690075 1.2737761 0
-0.29353231 -0.47696507 1.2753985 0
-0.29206204 -0.48862728 1.2851027 0
-0.2915749 -0.48573273 1.2893534 0
-0.29072851 -0.48827994 1.2955776 0
-0.29032141 -0.48416424 1.29939 0
-0.28935149 -0.48872852 1.306271 0
-0.28862786 -0.48955858 1.3117992 0
-0.28823581 -0.48519376 1.3155317 0
-0.28783447 -0.48092365 1.3193226 0
-0.28691334 -0.48498419 1.3258996 0
-0.28766328 -0.46193537 1.3235694 0
-0.28699178 -0.46184209 1.3288317 0
-0.28720456 -0.44707993 1.3294303 0
-0.2875697 -0.42948762 1.3292716 0
-0.28802699 -0.41000003 1.3286831 0
-0.28836581 -0.39216951 1.3287667 0
-0.28847149 -0.37803572 1.330106 0
-0.28857976 -0.3635906 1.3314728 0
-0.28940332 -0.33621368 1.3292305 0
-0.28954506 -0.32047382 1.3305337 0
-0.29032969 -0.29280457 1.3286406 0
-0.29017156 -0.2817933 1.331563 0
-0.29074752 -0.25700954 1.3308587 0
-0.29169425 -0.22478028 1.328397 0
-0.29204988 -0.20302986 1.3289497 0
-0.2919898 -0.18876563 1.3316045 0
-0.29242247 -0.16468662 1.3319118 0
-0.29335618 -0.13029245 1.3298833 0
-0.29413378 -0.09822119 1.3287195 0
-0.29490805 -0.065497942 1.3276813 0
-0.29525575 -0.040671561 1.3287672 0
-0.29520231 -0.023505693 1.3318144 0
-0.29616323 0.015073605 1.3302147 0
-0.29687312 0.049290225 1.3299086 0
-0.29816282 0.096635833 1.3270824 0
-0.29847854 0.12417115 1.3288329 0
-0.29933059 0.16404666 1.3282827 0
-0.30017835 0.20480624 1.3279014 0
-0.30108404 0.24787328 1.3274207 0
-0.30177307 0.28711733 1.3280479 0
-0.30301148 0.33996189 1.3264645 0
-0.30372429 0.38195661 1.3273271 0
-0.30416521 0.41863784 1.3295007 0
-0.30569887 0.48238057 1.3272796 0
-0.47853649 -0.9222663 -0.0087941885 0
-0.47701016 -0.91799682 0.0023517609 0
-0.47640121 -0.91147166 0.0074813366 0
-0.4768835 -0.902156 0.0054683685 0
-0.47811902 -0.89082783 -0.0014618635 0
-0.47772449 -0.88370878 0.0022702217 0
-0.47793567 -0.87497854 0.0020470619 0
-0.47955197 -0.86241728 -0.0073386431 0
-0.47908726 -0.85542846 -0.0031402111 0
-0.47977233 -0.84526789 -0.0064339638 0
-0.479092 -0.83886755 -0.00082945824 0
-0.47850874 -0.83221644 0.0041402578 0
-0.48038408 -0.81854039 -0.0068768263 0
-0.47845337 -0.81574821 0.0068528652 0
-0.47980604 -0.80344301 -0.00074827671 0
-0.4812887 -0.79064423 -0.0091773272 0
-0.47931239 -0.78808314 0.0048345327 0
-0.48045921 -0.77617687 -0.001401186 0
-0.48089018 -0.76636326 -0.0029890537 0
-0.48146439 -0.75605559 -0.0054965019 0
-0.48133206 -0.74789441 -0.0034278631 0
-0.48118138 -0.73977697 -0.0012381077 0
-0.48177353 -0.72927409 -0.003841877 0
-0.48149785 -0.72150594 -0.00083827972 0
-0.48197129 -0.71129078 -0.0026627779 0
-0.48112375 -0.70536512 0.0040293932 0
-0.48151332 -0.69535822 0.0027548075 0
-0.48159754 -0.68632388 0.0034513474 0
-0.48267934 -0.67387444 -0.00225842 0
-0.48122558 -0.67000806 0.0083292723 0
-0.48247713 -0.656856 0.0015461445 0
-0.48316649 -0.64555365 -0.0016154051 0
-0.48301744 -0.6371327 0.00060522556 0
-0.48331401 -0.62710559 -2.4080276e-05 0
-0.48384133 -0.61619902 -0.0021225214 0
-0.48393962 -0.60678256 -0.0014692545 0
-0.48431236 -0.59632295 -0.0025635958 0
-0.48432201 -0.58714908 -0.0013318062 0
-0.48339403 -0.58144259 0.0058848858 0
-0.48371834 -0.57104999 0.0051156282 0
-0.48456693 -0.55860722 0.0010153055 0
-0.48473862 -0.54866946 0.0012357235 0
-0.48462313 -0.53979814 0.0032887459 0
-0.48517317 -0.5282985 0.001116991 0
-0.48528191 -0.51846552 0.0017575026 0
-0.48506799 -0.50987291 0.0044510365 0
-0.48459491 -0.5022999 0.008789897 0
-0.48614874 -0.48651057 0.0002925396 0
-0.48628166 -0.47638071 0.00080776215 0
-0.48693264 -0.46406585 -0.001945734 0
-0.48636809 -0.45672232 0.00299263 0
-0.48738742 -0.44273207 -0.0020678043 0
-0.48701587 -0.43451583 0.001660943 0
-0.48701766 -0.42469177 0.0030388832 0
-0.48763451 -0.41217625 0.00054955482 0
-0.48871213 -0.39757061 -0.0048263073 0
-0.48848313 -0.38856709 -0.0019708872 0
-0.48865145 -0.3777816 -0.0016070604 0
-0.48892024 -0.36649045 -0.001865983 0
-0.48917198 -0.35521093 -0.0020084381 0
-0.48901758 -0.345707 0.00040304661 0
-0.48979935 -0.33188882 -0.0030413866 0
-0.49069965 -0.31741723 -0.007211566 0
-0.49109256 -0.30518612 -0.008194685 0
-0.4898496 -0.30054244 0.0010471344 0
-0.49054918 -0.28676599 -0.0018351078 0
-0.49080104 -0.2750172 -0.0019119978 0
-0.49087685 -0.26404315 -0.00088274479 0
-0.48999727 -0.25763839 0.006098628 0
-0.44192508 -0.48168728 0.30641568 0
-0.440952 -0.47765544 0.31370687 0
-0.43776926 -0.4846231 0.33470345 0
-0.43595245 -0.48496768 0.34720254 0
-0.43418297 -0.48517549 0.35939455 0
-0.43319342 -0.48151603 0.36674714 0
-0.43027523 -0.48777604 0.38601625 0
-0.4297502 -0.48186609 0.39047861 0
-0.4274174 -0.48536712 0.40609539 0
-0.42895198 -0.46871495 0.3978529 0
-0.42900568 -0.45972231 0.39875448 0
-0.42797649 -0.45645159 0.4063257 0
-0.4297345 -0.43823737 0.39676094 0
-0.42966196 -0.42974165 0.3984642 0
-0.43117917 -0.41252068 0.39042211 0
-0.43022546 -0.4087157 0.39754736 0
-0.42936587 -0.40441853 0.40409243 0
-0.43057802 -0.38856217 0.39796436 0
-0.43025541 -0.38119233 0.40123558 0
-0.43097016 -0.36790571 0.39817894 0
-0.43068317 -0.36023176 0.40124691 0
-0.43104672 -0.34877577 0.40035737 0
-0.43181103 -0.33490032 0.39704168 0
-0.43223193 -0.32290864 0.39583158 0
-0.43155065 -0.31732357 0.40132761 0
-0.43219009 -0.30388516 0.39881277 0
-0.43273231 -0.29090884 0.39690375 0
-0.43129465 -0.28977758 0.40699375 0
-0.43276075 -0.27104369 0.39951873 0
-0.39484096 -0.49365234 0.62991941 0
-0.3946836 -0.48640272 0.63203216 0
-0.39358371 -0.48498234 0.63982975 0
-0.39375734 -0.47561958 0.63995552 0
-0.39184129 -0.47939762 0.65265441 0
-0.38936663 -0.48686334 0.66868997 0
-0.38924116 -0.47942972 0.67060852 0
-0.38741472 -0.48295513 0.682724 0
-0.38623127 -0.4824113 0.69097483 0
-0.38498265 -0.48235467 0.69960678 0
-0.3843838 -0.47806326 0.70435035 0
-0.38140109 -0.48967138 0.72330821 0
-0.38143134 -0.48127425 0.72428763 0
-0.38018042 -0.48148945 0.73289692 0
-0.37920454 -0.4798955 0.73986256 0
-0.37759525 -0.48269618 0.75058138 0
-0.37636071 -0.48300683 0.7590639 0
-0.37476161 -0.48592979 0.76969481 0
-0.37371415 -0.48507881 0.77704954 0
-0.37196559 -0.48924607 0.78853691 0
-0.37208915 -0.48016691 0.78896809 0
-0.37068295 -0.48201874 0.79841852 0
-0.36975348 -0.48050147 0.80505264 0
-0.36719897 -0.490895 0.82122511 0
-0.36650819 -0.48778421 0.82643652 0
-0.36549997 -0.48703885 0.83350527 0
-0.3652904 -0.48036942 0.83589667 0
-0.36402047 -0.48164326 0.84448755 0
-0.36319566 -0.47961465 0.85047126 0
-0.36168361 -0.48286843 0.86045426 0
-0.36107409 -0.47927189 0.8651728 0
-0.35927039 -0.48495093 0.87682676 0
-0.35872075 -0.48095796 0.88118815 0
-0.3567493 -0.48817188 0.89378351 0
-0.35672653 -0.48006329 0.89508814 0
-0.35610569 -0.47667399 0.89985591 0
-0.35493761 -0.47770235 0.90777802 0
-0.35358989 -0.4802613 0.91672415 0
-0.35226718 -0.48270789 0.92551345 0
-0.35120693 -0.48307663 0.9327842 0
-0.3494131 -0.48961022 0.94424927 0
-0.34905443 -0.4842566 0.94748402 0
-0.34917977 -0.47477782 0.94795954 0
-0.34910458 -0.46691036 0.94959241 0
-0.34956914 -0.4543345 0.94816303 0
-0.34923011 -0.44856772 0.95132065 0
-0.34952193 -0.43725839 0.95090574 0
-0.35020781 -0.42235643 0.94827718 0
-0.35063979 -0.40952009 0.94711006 0
-0.35130444 -0.39445347 0.94465142 0
-0.35105014 -0.38747233 0.94739568 0
-0.3517091 -0.37214497 0.9450134 0
-0.35139495 -0.36552498 0.94811964 0
-0.35154459 -0.3545756 0.94863582 0
-0.35163006 -0.3440989 0.9495281 0
-0.35153812 -0.33516765 0.95142674 0
-0.35182449 -0.32257196 0.95123124 0
-0.33395347 -0.48268032 1.0520052 0
-0.33285731 -0.48444724 1.0593259 0
-0.33272916 -0.47692269 1.0612757 0
-0.33105743 -0.48437622 1.0717673 0
-0.33050388 -0.48100051 1.0760682 0
-0.32930148 -0.48404679 1.0839419 0
-0.32854605 -0.48271924 1.0893475 0
-0.32730907 -0.48626614 1.0973887 0
-0.3263554 -0.4870359 1.1038666 0
-0.32538575 -0.48802572 1.1104237 0
-0.3244161 -0.4890742 1.1169723 0
-0.32372957 -0.48723328 1.1219747 0
-0.32256216 -0.49045494 1.1295817 0
-0.3222183 -0.48504746 1.1327217 0
-0.32131901 -0.48552442 1.1388655 0
-0.32168734 -0.47239172 1.1381798 0
-0.32005167 -0.48085338 1.1482797 0
-0.31862864 -0.48717046 1.1572142 0
-0.31823987 -0.4822036 1.1606021 0
-0.31726182 -0.48376176 1.1671369 0
-0.3168886 -0.47858387 1.1704471 0
-0.31571656 -0.48241851 1.1779996 0
-0.31463283 -0.48534855 1.1850698 0
-0.31387952 -0.48455518 1.1903851 0
-0.31261921 -0.48969191 1.1983628 0
-0.31234419 -0.48337975 1.2011555 0
-0.31156862 -0.48292768 1.2065761 0
-0.31058371 -0.4850094 1.213084 0
-0.30941892 -0.4893387 1.2205164 0
-0.30867434 -0.48866519 1.2257543 0
-0.30813247 -0.48552555 1.2299414 0
-0.30731297 -0.48580834 1.2355611 0
-0.30713233 -0.47813553 1.2378944 0
-0.30559582 -0.48748788 1.2471833 0
-0.30512708 -0.483435 1.2509944 0
-0.30473465 -0.47835907 1.2544229 0
-0.30395496 -0.47825488 1.2598227 0
-0.30288309 -0.48201802 1.2666936 0
-0.30221894 -0.48048869 1.2714969 0
-0.30170164 -0.47700202 1.2755631 0
-0.30009061 -0.4882471 1.2850988 0
-0.29955378 -0.48510444 1.2892513 0
-0.29932469 -0.47769904 1.2918816 0
-0.29819268 -0.48273116 1.2989879 0
-0.29734865 -0.48385507 1.3046582 0
-0.2964654 -0.48559132 1.310513 0
-0.29598743 -0.481592 1.3143802 0
-0.29534549 -0.47991708 1.3190508 0
-0.29428235 -0.48439601 1.3257599 0
-0.29392898 -0.47852099 1.3290317 0
-0.29411423 -0.46452311 1.3297331 0
-0.29479921 -0.44273385 1.3280857 0
-0.29472932 -0.43201503 1.3300849 0
-0.29476008 -0.41955346 1.331636 0
-0.29622716 -0.38451523 1.3264616 0
-0.29613668 -0.37324521 1.328681 0
-0.29666021 -0.35200587 1.3280706 0
-0.2968922 -0.33502024 1.328872 0
-0.2970711 -0.31855616 1.3299661 0
-0.29758716 -0.29622218 1.3295624 0
-0.298127 -0.27302542 1.3291161 0
-0.299079 -0.24241439 1.3268726 0
-0.29891214 -0.23015085 1.3297606 0
-0.29950356 -0.20460621 1.3292904 0
-0.30049878 -0.17148215 1.3271039 0
-0.30119514 -0.14287281 1.3263427 0
-0.30130696 -0.12402774 1.3282373 0
-0.30251417 -0.085035928 1.325417 0
-0.30323851 -0.05394071 1.3248143 0
-0.30345586 -0.031481095 1.3264914 0
-0.30397338 -0.0028967627 1.3269618 0
-0.30468065 0.02995069 1.326725 0
-0.30557287 0.067129791 1.3258238 0
