# .PCD v0.7 - Point Cloud Data file format
VERSION 0.7
FIELDS x y z rgb
SIZE 4 4 4 4
TYPE F F F F
COUNT 1 1 1 1
WIDTH 1363
HEIGHT 1
VIEWPOINT 0 0 0 1 0 0 0
POINTS 1363
DATA ascii
2.9333036 -2.8782749 -1.3667507 0
3.0115139 -2.9418204 -1.368798 0
3.0514634 -2.9712169 -1.3523214 0
3.0534225 -2.9669218 -1.3186916 0
3.058419 -2.9653373 -1.2865289 0
3.0567462 -2.9579024 -1.25172 0
3.0604243 -2.95521 -1.2193117 0
3.0670907 -2.9551589 -1.1882033 0
3.068505 -2.9505246 -1.1551517 0
3.0613127 -2.9384081 -1.1190723 0
3.0720775 -2.9419911 -1.0898113 0
3.0779376 -2.9413047 -1.0587952 0
3.0734904 -2.9316888 -1.0243336 0
3.07779 -2.9296911 -0.99302626 0
3.0874307 -2.9323213 -0.96351218 0
3.0801451 -2.9203558 -0.92872763 0
3.0857859 -2.9195647 -0.89812744 0
3.0819609 -2.910655 -0.86483055 0
3.0932238 -2.9147136 -0.83598614 0
3.080853 -2.8985498 -0.80068964 0
3.092535 -2.9029806 -0.7720387 0
3.0972662 -2.9014761 -0.7415607 0
3.0975139 -2.8961689 -0.71005011 0
3.0960505 -2.8894329 -0.67827398 0
3.0962164 -2.8841043 -0.6470167 0
3.105453 -2.8864601 -0.61780012 0
3.1127758 -2.8871927 -0.58814228 0
3.107439 -2.8772688 -0.55602896 0
3.109318 -2.8734424 -0.52545124 0
3.1077242 -2.8667185 -0.49434754 0
3.1089971 -2.8624172 -0.4638513 0
3.119107 -2.8655074 -0.43479881 0
3.1273296 -2.8670092 -0.40538308 0
3.1300023 -2.8638864 -0.37515807 0
3.9670966 -3.5533228 -0.45028719 0
3.9764616 -3.5543993 -0.41315439 0
3.9701097 -3.5424705 -0.37426579 0
4.1996469 -3.7252142 -0.35879597 0
-0.24253196 -0.3217538 -1.4199754 0
-0.23401141 -0.32804528 -1.4165854 0
-0.22592655 -0.33513868 -1.4197981 0
-0.21748972 -0.34152579 -1.4173424 0
-0.20915367 -0.34810638 -1.4164598 0
-0.20091256 -0.3549701 -1.4176359 0
-0.19260038 -0.36165565 -1.417464 0
-0.18438196 -0.36879331 -1.4203125 0
-0.17596014 -0.37504235 -1.4171363 0
-0.16771151 -0.38233897 -1.4207546 0
-0.15936448 -0.38918686 -1.4213504 0
-0.15101057 -0.39621603 -1.4229518 0
-0.14260241 -0.40235946 -1.4192344 0
-0.13421974 -0.40923879 -1.4198451 0
-0.12584686 -0.41532108 -1.4159412 0
-0.11747475 -0.42182198 -1.414436 0
-0.10901877 -0.42922965 -1.4177312 0
-0.10044134 -0.43724114 -1.4239197 0
-0.09209127 -0.44319317 -1.4193758 0
-0.083701991 -0.44954351 -1.4169295 0
-0.075040177 -0.45732471 -1.4214103 0
-0.06671869 -0.46328387 -1.4170394 0
-0.058040887 -0.47082436 -1.4200692 0
-0.049740501 -0.47675195 -1.4156151 0
-0.041409448 -0.48286852 -1.4121003 0
-0.032326266 -0.49152884 -1.4196634 0
-0.022631697 -0.50184309 -1.4338638 0
-0.014956601 -0.50576329 -1.4208146 0
-0.0062777549 -0.51276577 -1.4207605 0
0.0020239651 -0.5187031 -1.4163564 0
0.011061564 -0.52658045 -1.4196504 0
0.018381789 -0.53008592 -1.4058683 0
0.027674094 -0.53851503 -1.411142 0
0.036532328 -0.54580128 -1.411883 0
0.045940712 -0.55425948 -1.4167862 0
0.054788038 -0.56137526 -1.4166019 0
0.064454004 -0.57017577 -1.422273 0
0.071584508 -0.57364094 -1.4091381 0
0.081189588 -0.58220565 -1.4137417 0
0.090595886 -0.59027475 -1.4164282 0
0.099807486 -0.59789312 -1.4174356 0
0.10752426 -0.60266173 -1.4090484 0
0.1187153 -0.61385489 -1.4213594 0
0.12515239 -0.6163218 -1.4057182 0
0.13634832 -0.627316 -1.4168681 0
0.1456386 -0.63484335 -1.4169914 0
0.15347303 -0.63985205 -1.4094336 0
0.16391079 -0.64925706 -1.414996 0
0.17233346 -0.65524423 -1.4103178 0
0.18257497 -0.66418886 -1.4141527 0
0.1914037 -0.67079628 -1.4111457 0
0.20122646 -0.67895925 -1.4124445 0
0.21153717 -0.68782771 -1.4155239 0
0.2209558 -0.6952579 -1.4144983 0
0.22906397 -0.70067191 -1.407994 0
0.24164249 -0.71279514 -1.4192125 0
0.25129533 -0.72045076 -1.418394 0
0.25985217 -0.72647035 -1.413281 0
0.27041763 -0.73539829 -1.4155231 0
0.27950579 -0.74215305 -1.4121603 0
0.28859305 -0.74889398 -1.408722 0
0.29960883 -0.75832582 -1.4117663 0
0.31067145 -0.76775801 -1.4145951 0
0.32024068 -0.77507341 -1.4122162 0
0.33292848 -0.78661585 -1.4196067 0
0.33878219 -0.78883183 -1.4052259 0
0.3514958 -0.80029857 -1.4120644 0
0.36289203 -0.80992484 -1.414462 0
0.37020719 -0.81411922 -1.4046457 0
0.38318372 -0.82573712 -1.4111333 0
0.39496166 -0.8357141 -1.4137728 0
0.40464133 -0.84293234 -1.4103277 0
0.41621673 -0.85255241 -1.4118617 0
0.42725152 -0.86143482 -1.4116734 0
0.43741477 -0.86917949 -1.4090049 0
0.44637883 -0.87540126 -1.4031657 0
0.46024835 -0.88770747 -1.4094636 0
0.47287667 -0.89839888 -1.4122604 0
0.48688918 -0.91072452 -1.4180082 0
0.49550313 -0.91639793 -1.4106505 0
0.5088374 -0.9277848 -1.4141631 0
0.52242357 -0.9394083 -1.4178646 0
0.53076899 -0.94469976 -1.4095621 0
0.54004115 -0.95109951 -1.4033176 0
0.55772841 -0.96743643 -1.4150298 0
0.56448811 -0.9708159 -1.4031184 0
0.5818215 -0.98657906 -1.4131833 0
0.59134912 -0.99316216 -1.4068072 0
0.60087335 -0.99973345 -1.4003786 0
0.6174531 -1.0144124 -1.4077238 0
0.63102877 -1.0255628 -1.4087671 0
0.63938344 -1.030714 -1.3996205 0
0.6535973 -1.0425107 -1.401412 0
0.67018932 -1.0569311 -1.4072211 0
0.68511677 -1.0694008 -1.4095638 0
0.70129877 -1.0832094 -1.4137679 0
0.70828706 -1.0867192 -1.4015455 0
0.72290838 -1.0986997 -1.4025047 0
0.73780853 -1.1109316 -1.4036136 0
0.7510801 -1.1213188 -1.4016964 0
0.77204311 -1.1400708 -1.4120836 0
0.78458011 -1.1495428 -1.4083251 0
0.78982186 -1.1510769 -1.392872 0
0.81063271 -1.1694479 -1.4017828 0
0.82676148 -1.1826824 -1.402949 0
0.84060091 -1.1934049 -1.4003245 0
0.85878611 -1.2087216 -1.4038982 0
0.87596262 -1.2228913 -1.4055715 0
0.88743067 -1.2309535 -1.3986877 0
0.90906227 -1.2497133 -1.4060293 0
0.92618072 -1.2636336 -1.4065441 0
0.94314277 -1.2773286 -1.4064926 0
0.95635509 -1.2870536 -1.4010594 0
0.97378218 -1.3011284 -1.4010313 0
0.9925878 -1.31657 -1.4024514 0
1.0090331 -1.329506 -1.4004465 0
1.0293059 -1.3463273 -1.4029776 0
1.0439898 -1.3573421 -1.3981218 0
1.0643893 -1.3741583 -1.400039 0
1.0863788 -1.3925178 -1.4034365 0
1.0987105 -1.4009899 -1.3949052 0
1.1174631 -1.4159374 -1.3937439 0
1.1420711 -1.4367287 -1.3989495 0
1.1610773 -1.45179 -1.3972669 0
1.1798611 -1.4665672 -1.3949866 0
1.2027937 -1.485431 -1.3969082 0
1.2265221 -1.5050037 -1.3992093 0
1.249477 -1.5237216 -1.4001939 0
1.2659105 -1.5359012 -1.3939155 0
1.292034 -1.5576056 -1.3973408 0
1.3116655 -1.5728222 -1.3936564 0
1.3417039 -1.598195 -1.3999734 0
1.3578219 -1.6098273 -1.3920208 0
1.3866721 -1.6338477 -1.3960942 0
1.4107085 -1.6530766 -1.3950036 0
1.4370492 -1.6744624 -1.3956025 0
1.461889 -1.6943051 -1.3943095 0
1.489526 -1.7167662 -1.3950675 0
1.5098671 -1.732109 -1.3888242 0
1.5395567 -1.7563702 -1.3903947 0
1.5690224 -1.780314 -1.3911823 0
1.6007366 -1.8063039 -1.3932837 0
1.6248156 -1.8249103 -1.3884356 0
1.6591117 -1.8531513 -1.3914821 0
1.6888328 -1.8769361 -1.3901803 0
1.7275798 -1.9091543 -1.3954079 0
1.7529429 -1.9286151 -1.3895115 0
1.784891 -1.9541939 -1.3881798 0
1.8189605 -1.9816579 -1.3878286 0
1.8558532 -2.0116501 -1.3888931 0
1.8910674 -2.0399511 -1.3880363 0
1.9226474 -2.0647511 -1.3839517 0
1.9629146 -2.0975223 -1.3853166 0
1.9967493 -2.1241965 -1.3815302 0
2.0423903 -2.1616781 -1.385007 0
2.0850487 -2.1962523 -1.3856322 0
2.1224799 -2.2258735 -1.3820844 0
2.1634974 -2.2586684 -1.3801148 0
2.2114496 -2.2976809 -1.3816651 0
2.2616963 -2.3386285 -1.3836815 0
2.2990637 -2.367666 -1.3770875 0
2.3519812 -2.4107323 -1.3788812 0
2.4048185 -2.4535494 -1.3796144 0
2.4545 -2.4933326 -1.3775821 0
2.5087705 -2.5371006 -1.3771346 0
2.5685508 -2.5856569 -1.3786135 0
2.6186321 -2.6252911 -1.3738784 0
2.6765308 -2.671782 -1.3722379 0
2.740957 -2.7239292 -1.372788 0
2.8014305 -2.7723329 -1.3701882 0
2.8685551 -2.8264704 -1.3696525 0
2.9410126 -2.885133 -1.3703535 0
3.0061495 -2.9370584 -1.3663497 0
3.0045793 -2.9296877 -1.3314348 0
3.0110357 -2.9294567 -1.3002672 0
3.0172837 -2.9290557 -1.2690907 0
3.012557 -2.9190092 -1.2334591 0
3.0165164 -2.9166458 -1.2016333 0
3.0202382 -2.9140949 -1.1698335 0
3.0209744 -2.9089539 -1.1370145 0
3.0199933 -2.9023449 -1.103736 0
3.0289333 -2.9044132 -1.0742453 0
3.0300338 -2.8996677 -1.0420059 0
3.0336881 -2.8971648 -1.0107917 0
3.0296233 -2.8879974 -0.97712982 0
3.0417917 -2.8928971 -0.94891298 0
3.0407851 -2.8864248 -0.91653407 0
3.0399728 -2.8801513 -0.88439488 0
3.0432255 -2.8773983 -0.8536064 0
3.0434012 -2.8720238 -0.82204485 0
3.0469444 -2.8695548 -0.79153699 0
3.0457582 -2.8630624 -0.75987357 0
3.0524247 -2.863286 -0.73033857 0
3.056782 -2.8615487 -0.70025432 0
3.0658021 -2.8637748 -0.6712935 0
3.0593326 -2.8528795 -0.63886207 0
3.0620911 -2.8498247 -0.60863155 0
3.0601811 -2.8428454 -0.57752669 0
3.0654075 -2.841898 -0.54794765 0
3.0703447 -2.8407104 -0.5183295 0
3.0676029 -2.8330894 -0.48739728 0
3.0743868 -2.8334639 -0.45818332 0
3.0818834 -2.8344297 -0.42905408 0
3.0715365 -2.8205197 -0.39729714 0
3.1527348 -2.8827908 -0.37823954 0
3.9117954 -3.5074241 -0.44330779 0
3.9135334 -3.5022724 -0.40579873 0
3.925523 -3.5056093 -0.3694683 0
4.2190809 -3.7412498 -0.36070704 0
-0.24263205 -0.3219164 -1.4213685 0
-0.23454295 -0.32901758 -1.4246057 0
-0.22622871 -0.33576462 -1.4247763 0
-0.21720095 -0.34084338 -1.4121031 0
-0.20925754 -0.34838903 -1.4185572 0
-0.2007688 -0.35451442 -1.4143641 0
-0.19265623 -0.36186504 -1.4189202 0
-0.18439768 -0.36886448 -1.4207923 0
-0.17618218 -0.37629232 -1.4253145 0
-0.16764647 -0.38186386 -1.4177355 0
-0.1593307 -0.38884345 -1.4192294 0
-0.15088812 -0.39423791 -1.4110676 0
-0.14261343 -0.40276214 -1.4215894 0
-0.1342217 -0.40887955 -1.4177991 0
-0.12577394 -0.41730857 -1.426976 0
-0.11741178 -0.42277005 -1.4195694 0
-0.10901152 -0.429306 -1.4181346 0
-0.1004221 -0.43739909 -1.4247346 0
-0.09211722 -0.44301751 -1.4184908 0
-0.083401829 -0.45128503 -1.4255065 0
-0.075160727 -0.45670971 -1.4184488 0
-0.066798821 -0.46291748 -1.4153135 0
-0.058502398 -0.46890548 -1.4112235 0
-0.049985699 -0.47581407 -1.4113822 0
-0.040527202 -0.48600218 -1.4259518 0
-0.032193825 -0.49196896 -1.4215696 0
-0.023769304 -0.49828279 -1.4187515 0
-0.016090542 -0.50240332 -1.4068315 0
-0.0067473203 -0.51144224 -1.4153588 0
0.0021811873 -0.5191263 -1.4180508 0
0.01079157 -0.52588403 -1.4169139 0
0.019429073 -0.53268278 -1.4158857 0
0.028005019 -0.53930604 -1.414138 0
0.037648097 -0.54837823 -1.4214694 0
0.046020344 -0.55443764 -1.4174372 0
0.055109903 -0.56207371 -1.4191104 0
0.063804284 -0.56880534 -1.4174356 0
0.071712539 -0.5739038 -1.4100504 0
0.080773264 -0.58137226 -1.4108975 0
0.089571461 -0.58827281 -1.4097093 0
0.099083528 -0.59651017 -1.4128699 0
0.10956827 -0.60648227 -1.4214597 0
0.11654343 -0.60987842 -1.4086469 0
0.12792335 -0.62129623 -1.4213706 0
0.13566004 -0.6261034 -1.4131119 0
0.14472921 -0.63326979 -1.412192 0
0.15404849 -0.6408307 -1.4123731 0
0.16346239 -0.648507 -1.4127768 0
0.17307831 -0.65647078 -1.4138919 0
0.18177365 -0.66288936 -1.4104215 0
0.189602 -0.66791701 -1.4030004 0
0.20260365 -0.68112934 -1.4184945 0
0.21241553 -0.68919313 -1.4192761 0
0.21931787 -0.69274497 -1.4076915 0
0.22772096 -0.69863737 -1.4025608 0
0.2414621 -0.71252513 -1.4185017 0
0.24773197 -0.71518028 -1.4047103 0
0.25848353 -0.72446907 -1.4081566 0
0.26895434 -0.73328197 -1.4101788 0
0.28135651 -0.74480116 -1.4187565 0
0.28701878 -0.74666464 -1.403244 0
0.29506844 -0.75196075 -1.3963356 0
0.30683076 -0.76242602 -1.4018413 0
0.31929117 -0.77376771 -1.4091344 0
0.33175099 -0.78501153 -1.4158702 0
0.34267288 -0.79408598 -1.4173032 0
0.34913135 -0.79713309 -1.4048829 0
0.36297536 -0.81003535 -1.4147094 0
0.37263906 -0.81732082 -1.4117229 0
0.38440716 -0.827335 -1.4146203 0
0.39255846 -0.83259988 -1.407064 0
0.40768683 -0.84684885 -1.4186579 0
0.4145444 -0.85041785 -1.4073787 0
0.42572206 -0.85949671 -1.4076544 0
0.43502629 -0.86617422 -1.402851 0
0.44916791 -0.87888622 -1.4102131 0
0.45839053 -0.88540161 -1.4048589 0
0.47045469 -0.8954128 -1.4063709 0
0.48357987 -0.90667069 -1.4101115 0
0.49615937 -0.91719675 -1.4121873 0
0.50696588 -0.92552078 -1.4098605 0
0.51763844 -0.93365455 -1.4070636 0
0.53432161 -0.94894624 -1.4174364 0
0.54325724 -0.95492136 -1.4103179 0
0.55644292 -0.96591735 -1.4122812 0
0.56412727 -0.97039199 -1.4023607 0
0.58231735 -0.98715854 -1.4142067 0
0.59113991 -0.99291909 -1.4063832 0
0.60575402 -1.0053767 -1.4101057 0
0.61890936 -1.0160874 -1.4105763 0
0.62635016 -1.0202084 -1.3997583 0
0.64555895 -1.0377465 -1.4113107 0
0.65589875 -1.0451188 -1.4056953 0
0.67214608 -1.0591379 -1.4108021 0
0.68223035 -1.0661609 -1.4043692 0
0.70085752 -1.0827163 -1.412987 0
0.70601159 -1.0841885 -1.3975846 0
0.72585696 -1.1019642 -1.4075532 0
0.73695701 -1.109993 -1.4021795 0
0.75367451 -1.1241664 -1.4059951 0
0.7665748 -1.1340951 -1.4031701 0
0.78592658 -1.1510081 -1.4104844 0
0.79692525 -1.158775 -1.404081 0
0.81395882 -1.1730376 -1.4069469 0
0.82907176 -1.1851659 -1.4064786 0
0.84337306 -1.1963731 -1.4044925 0
0.86249506 -1.2126775 -1.4093863 0
0.87877452 -1.2258788 -1.4096663 0
0.88795149 -1.2315048 -1.3994342 0
0.90447307 -1.2448744 -1.3995565 0
0.92016661 -1.2573155 -1.3981951 0
0.93797672 -1.2719212 -1.399434 0
0.95848954 -1.2892797 -1.4039301 0
0.97612607 -1.3035642 -1.4041337 0
0.99027467 -1.3141745 -1.3994377 0
1.0107623 -1.3312906 -1.4026641 0
1.0303507 -1.3474019 -1.4042962 0
1.0436349 -1.3569783 -1.3976808 0
1.0685043 -1.3783625 -1.4050714 0
1.0828743 -1.3889493 -1.3992182 0
1.1030643 -1.405409 -1.4000635 0
1.1168303 -1.4152974 -1.3930062 0
1.1396217 -1.4342583 -1.3961383 0
1.1648318 -1.4555645 -1.4015079 0
1.1824565 -1.4691684 -1.397872 0
1.2064891 -1.4891231 -1.4009511 0
1.2312316 -1.5096949 -1.4042802 0
1.2482876 -1.5225403 -1.3989335 0
1.2648453 -1.5348464 -1.3928047 0
1.2838551 -1.549531 -1.3889488 0
1.3135165 -1.5746443 -1.3955252 0
1.3382524 -1.5948073 -1.3965449 0
1.3585627 -1.6105522 -1.3927445 0
1.3884244 -1.635558 -1.397779 0
1.414923 -1.6571782 -1.3989892 0
1.4368647 -1.6742835 -1.3954308 0
1.4577872 -1.6903352 -1.3905562 0
1.4814186 -1.7089409 -1.3877714 0
1.5136381 -1.735739 -1.3921617 0
1.5363238 -1.7532666 -1.3875812 0
1.5692223 -1.7805052 -1.3913532 0
1.6011249 -1.8066745 -1.3936101 0
1.6283628 -1.8282889 -1.3913693 0
1.6536503 -1.847963 -1.3870423 0
1.6944776 -1.8822849 -1.3946904 0
1.723531 -1.9053277 -1.3922291 0
1.7494906 -1.9253604 -1.386848 0
1.7851162 -1.9544057 -1.3883505 0
1.8145679 -1.9775376 -1.3845581 0
1.8507606 -2.0068851 -1.3851689 0
1.8923558 -2.0411532 -1.3889612 0
1.9241823 -2.0661802 -1.3850337 0
1.9646891 -2.0991707 -1.3865453 0
2.0016387 -2.1287272 -1.3848526 0
2.0446796 -2.1637948 -1.3865339 0
2.0852163 -2.1964068 -1.3857416 0
2.1274593 -2.2304554 -1.385281 0
2.1692762 -2.263973 -1.3837533 0
2.2099504 -2.2963078 -1.3807395 0
2.2646451 -2.3413231 -1.3854667 0
2.3059781 -2.3739693 -1.3811902 0
2.3507988 -2.4096575 -1.3781941 0
2.4086733 -2.4570472 -1.3818101 0
2.4541757 -2.4930389 -1.377401 0
2.5120246 -2.5400405 -1.3789124 0
2.5662267 -2.5835621 -1.3773705 0
2.6229703 -2.6291928 -1.3761486 0
2.6870186 -2.6811936 -1.3776073 0
2.749795 -2.731843 -1.377213 0
2.8119605 -2.7817409 -1.3753425 0
2.8780286 -2.8349164 -1.3741846 0
2.9406958 -2.884851 -1.3702054 0
2.9551551 -2.8917916 -1.3430769 0
2.9645474 -2.8942282 -1.3136011 0
2.9652517 -2.8889885 -1.2803662 0
2.9707723 -2.8880322 -1.2493736 0
2.9653692 -2.8774772 -1.2139591 0
2.9708872 -2.8765702 -1.1832619 0
2.9768507 -2.8760686 -1.1528227 0
2.9750288 -2.8687692 -1.1194825 0
2.9744809 -2.862622 -1.0868437 0
2.9814026 -2.8630154 -1.0570967 0
2.9858472 -2.8612621 -1.0265194 0
2.9714324 -2.8431652 -0.98961055 0
2.9857085 -2.8499849 -0.96263659 0
2.9867196 -2.845324 -0.93129605 0
2.9902556 -2.8428652 -0.90088028 0
2.9934402 -2.8401189 -0.87044638 0
3.0000722 -2.8403485 -0.84110236 0
2.9953411 -2.8308449 -0.80859673 0
2.9971764 -2.8269982 -0.77810365 0
3.0012352 -2.8250675 -0.74829447 0
2.9996169 -2.8183122 -0.71712303 0
3.0067973 -2.8190639 -0.68823326 0
3.0085304 -2.8151937 -0.65807688 0
3.0122976 -2.8130617 -0.62846321 0
3.006948 -2.8032355 -0.59697193 0
3.016799 -2.8062656 -0.56877071 0
3.0192521 -2.8030572 -0.53907353 0
3.0187573 -2.7973845 -0.50890291 0
3.028173 -2.8000391 -0.48056665 0
3.0249867 -2.7921386 -0.45009324 0
3.0419486 -2.8010883 -0.4228909 0
3.0215359 -2.7788568 -0.39005071 0
3.1523991 -2.8825114 -0.37819403 0
3.376524 -3.0631599 -0.37575257 0
3.8573608 -3.4557419 -0.39923272 0
3.897001 -3.4820297 -0.36639944 0
4.2285686 -3.7490778 -0.36164001 0
-0.24206826 -0.32100055 -1.413522 0
-0.23413676 -0.32827458 -1.4184769 0
-0.2258983 -0.33508018 -1.4193329 0
-0.21734348 -0.34118021 -1.4146892 0
-0.20952158 -0.34910735 -1.4238876 0
-0.20100817 -0.35527313 -1.4198116 0
-0.19295454 -0.36298358 -1.426699 0
-0.18428136 -0.36833775 -1.4172411 0
-0.17627189 -0.37679726 -1.4286182 0
-0.16755676 -0.3812086 -1.4135715 0
-0.15932232 -0.38875842 -1.418704 0
-0.15093818 -0.39504641 -1.4159249 0
-0.14259076 -0.4019331 -1.4167413 0
-0.13422194 -0.40883631 -1.4175528 0
-0.12579457 -0.41674599 -1.4238526 0
-0.11737201 -0.42336896 -1.4228125 0
-0.10902891 -0.42912266 -1.4171659 0
-0.10053196 -0.436497 -1.4200809 0
-0.092146493 -0.44281924 -1.4174916 0
-0.083541289 -0.45047593 -1.4215217 0
-0.075289659 -0.45605201 -1.4152818 0
-0.066276461 -0.46530566 -1.426563 0
-0.058108725 -0.47054231 -1.4187689 0
-0.049523681 -0.47758135 -1.4193583 0
-0.041114055 -0.48391765 -1.4167378 0
-0.031997778 -0.49262053 -1.4243913 0
-0.024559356 -0.49581021 -1.4082564 0
-0.01511506 -0.50529385 -1.4188607 0
-0.0067985505 -0.51129782 -1.4147694 0
0.0018093288 -0.51812541 -1.4140432 0
0.010090411 -0.52407539 -1.4098065 0
0.019423679 -0.53266948 -1.4158344 0
0.029690519 -0.54333472 -1.4293972 0
0.037090614 -0.54709077 -1.41668 0
0.045188114 -0.5525763 -1.4106348 0
0.054263368 -0.56023669 -1.4125133 0
0.062802389 -0.56669235 -1.4099768 0
0.071961775 -0.57441556 -1.4118263 0
0.081321523 -0.5824697 -1.4146427 0
0.091834024 -0.5926944 -1.424549 0
0.10090728 -0.59999388 -1.4243717 0
0.10847078 -0.60443091 -1.4147955 0
0.1177039 -0.61200309 -1.4154396 0
0.12730266 -0.62018192 -1.4178643 0
0.13698469 -0.6284371 -1.420341 0
0.14457022 -0.63299471 -1.411353 0
0.15600385 -0.64415622 -1.4223617 0
0.16322909 -0.64811671 -1.4116223 0
0.17246397 -0.65545917 -1.4109441 0
0.18278621 -0.66453135 -1.415136 0
0.19125648 -0.67056096 -1.4104801 0
0.20028941 -0.67748272 -1.4083277 0
0.21227737 -0.68897831 -1.4186858 0
0.22159158 -0.69623339 -1.4171405 0
0.23076345 -0.70324659 -1.4148695 0
0.24031536 -0.71080887 -1.4139829 0
0.24991749 -0.71841288 -1.413103 0
0.25918448 -0.72549403 -1.4107811 0
0.26934391 -0.73384547 -1.4116018 0
0.2776531 -0.73950219 -1.4055573 0
0.29047275 -0.7515558 -1.4152627 0
0.29947656 -0.75814044 -1.4113168 0
0.31053823 -0.767573 -1.4141526 0
0.32016969 -0.77497578 -1.4119859 0
0.32960033 -0.78208089 -1.4090443 0
0.34129524 -0.79222548 -1.4130268 0
0.34981447 -0.79804766 -1.4069579 0
0.36527568 -0.81308901 -1.4215475 0
0.37172306 -0.8161149 -1.4090571 0
0.38286042 -0.825315 -1.410212 0
0.39263225 -0.8326956 -1.40727 0
0.40593976 -0.84460211 -1.4138794 0
0.41523248 -0.85129619 -1.4092231 0
0.42611235 -0.85999131 -1.40868 0
0.43797642 -0.86988616 -1.410452 0
0.44644612 -0.8754853 -1.4033358 0
0.46023458 -0.88769031 -1.4094294 0
0.47189105 -0.89718378 -1.4098637 0
0.48486489 -0.90824485 -1.4131778 0
0.49411976 -0.9147141 -1.4074107 0
0.50252599 -0.9201498 -1.3996534 0
0.51890981 -0.93518341 -1.4099336 0
0.5258745 -0.93884933 -1.3987141 0
0.54284954 -0.9544369 -1.4094306 0
0.55270386 -0.96149933 -1.4042867 0
0.56394333 -0.97017586 -1.4019743 0
0.58189756 -0.98666799 -1.4133402 0
0.59374911 -0.99595189 -1.4116744 0
0.60554457 -1.0051345 -1.4096881 0
0.61604273 -1.01279 -1.404961 0
0.63301837 -1.0278398 -1.4125983 0
0.63734233 -1.0283898 -1.3957567 0
0.65554529 -1.0447183 -1.4050375 0
0.66988611 -1.0565891 -1.4066663 0
0.68338633 -1.0674584 -1.4064494 0
0.69621265 -1.0775269 -1.4047662 0
0.70847207 -1.0869249 -1.4018675 0
0.72447067 -1.1004294 -1.4051796 0
0.74175996 -1.1152872 -1.4102688 0
0.75387043 -1.1243813 -1.4063197 0
0.76565963 -1.1330949 -1.4016784 0
0.78389615 -1.1487985 -1.4072279 0
0.79526412 -1.1569749 -1.4014598 0
0.81577402 -1.1749969 -1.4097655 0
0.83019751 -1.1863761 -1.4081988 0
0.84045702 -1.1932509 -1.4001081 0
0.85689706 -1.2067069 -1.4011031 0
0.87556469 -1.2224686 -1.4049921 0
0.88958335 -1.2332319 -1.4017727 0
0.91109967 -1.2518617 -1.4089034 0
0.92074597 -1.2579242 -1.3989995 0
0.94162858 -1.2757436 -1.4044237 0
0.95934808 -1.2901752 -1.4050847 0
0.97277212 -1.3000785 -1.3996942 0
0.99110627 -1.3150357 -1.4005212 0
1.011168 -1.3317094 -1.4031843 0
1.0246059 -1.341493 -1.3970448 0
1.0431281 -1.3564588 -1.3970511 0
1.0646152 -1.3743891 -1.4003153 0
1.0860274 -1.3921601 -1.4030133 0
1.1016657 -1.4039893 -1.3984065 0
1.1179911 -1.4164716 -1.3943595 0
1.1387199 -1.4333489 -1.3951033 0
1.1618339 -1.4525505 -1.3981215 0
1.1840053 -1.4707208 -1.3995938 0
1.2044103 -1.4870461 -1.398677 0
1.2303011 -1.5087681 -1.4032785 0
1.2529089 -1.5271299 -1.4038305 0
1.2693461 -1.5393031 -1.3974979 0
1.2898936 -1.5554926 -1.3951447 0
1.3138671 -1.5749894 -1.3958791 0
1.3387024 -1.5952491 -1.396992 0
1.3635428 -1.6154264 -1.3976115 0
1.3854648 -1.6326696 -1.3949335 0
1.4061266 -1.6486175 -1.3906701 0
1.4328692 -1.6704057 -1.3917136 0
1.4637568 -1.6961129 -1.3960186 0
1.4892812 -1.71653 -1.3948473 0
1.519205 -1.7410976 -1.3970885 0
1.5469686 -1.763486 -1.3968455 0
1.5724396 -1.7835857 -1.3941064 0
1.5947307 -1.8005683 -1.3882309 0
1.6294917 -1.8293642 -1.3923029 0
1.6563852 -1.8505611 -1.3892655 0
1.6946828 -1.8824794 -1.3948544 0
1.7198499 -1.9018483 -1.3893386 0
1.7540801 -1.9296873 -1.390389 0
1.7853829 -1.9546564 -1.3885525 0
1.8231879 -1.9856235 -1.3909762 0
1.852856 -2.0088456 -1.3867011 0
1.8933891 -2.0421181 -1.3897034 0
1.9296621 -2.0712829 -1.388898 0
1.9635979 -2.0981572 -1.3857898 0
2.0117338 -2.1380823 -1.3917128 0
2.0405853 -2.1600096 -1.3838034 0
2.0836582 -2.1949697 -1.3847221 0
2.1224847 -2.225878 -1.3820876 0
2.1697989 -2.2644527 -1.3840823 0
2.2105975 -2.2969005 -1.381139 0
2.2547317 -2.3322649 -1.3794658 0
2.3074796 -2.3753381 -1.382081 0
2.3564186 -2.4147685 -1.3814615 0
2.4071567 -2.4556708 -1.3809462 0
2.4560168 -2.4947059 -1.3784282 0
2.5111828 -2.5392802 -1.3784525 0
2.5634165 -2.5810289 -1.3758676 0
2.6257277 -2.6316729 -1.3775917 0
2.679991 -2.6748869 -1.3740093 0
2.7421854 -2.7250295 -1.3734032 0
2.8113863 -2.7812281 -1.3750616 0
2.8708103 -2.8284812 -1.3707315 0
2.9132421 -2.8604281 -1.357375 0
2.9188852 -2.8595955 -1.3265239 0
2.9120073 -2.8476894 -1.2901951 0
2.9239621 -2.852493 -1.2624189 0
2.9266818 -2.8491437 -1.2306826 0
2.9285934 -2.8451092 -1.1987618 0
2.9314787 -2.8419583 -1.167395 0
2.9357257 -2.8400245 -1.1366984 0
2.9316745 -2.8308511 -1.1029389 0
2.9391809 -2.8318126 -1.0737419 0
2.9394965 -2.8265159 -1.0419773 0
2.9414768 -2.8226962 -1.0109682 0
2.9377477 -2.8139477 -0.97815013 0
2.9496422 -2.8187659 -0.95073354 0
2.945859 -2.8100276 -0.91822535 0
2.9444158 -2.8033481 -0.88667923 0
2.9475288 -2.8006208 -0.85668433 0
2.947892 -2.7955482 -0.82598245 0
2.9600143 -2.8005762 -0.79871178 0
2.9516451 -2.7880647 -0.76581389 0
2.9611223 -2.7908361 -0.73786247 0
2.9602752 -2.7848063 -0.7072773 0
2.9661176 -2.7844882 -0.67844999 0
2.970948 -2.7833142 -0.64940393 0
2.9689012 -2.7763238 -0.61886877 0
2.9725938 -2.7742107 -0.58970797 0
2.9807386 -2.7758596 -0.56149226 0
2.9731557 -2.7642658 -0.53021073 0
2.9854903 -2.7694447 -0.50282395 0
2.9792316 -2.7590165 -0.47208849 0
2.9778502 -2.7527072 -0.44237402 0
2.9862857 -2.7546155 -0.41430035 0
2.9873493 -2.750371 -0.38509625 0
3.1567414 -2.8861227 -0.37878266 0
3.3793428 -3.0654995 -0.37610841 0
3.7998478 -3.4081011 -0.39251006 0
3.9037116 -3.4875777 -0.36712143 0
4.2387528 -3.7574806 -0.36264142 0
-0.24238463 -0.32151449 -1.4179249 0
-0.23426309 -0.32850564 -1.420383 0
-0.22554319 -0.33434451 -1.413482 0
-0.21712601 -0.34066629 -1.4107435 0
-0.20906855 -0.34787479 -1.4147413 0
-0.20144598 -0.35666072 -1.4297749 0
-0.19267954 -0.36195242 -1.419528 0
-0.18435097 -0.36865294 -1.419366 0
-0.17593625 -0.37490791 -1.4162567 0
-0.16771495 -0.38236409 -1.4209141 0
-0.15932536 -0.38878936 -1.4188952 0
-0.15100306 -0.39609465 -1.4222226 0
-0.14259018 -0.40191168 -1.4166157 0
-0.13421848 -0.40946528 -1.4211354 0
-0.12577377 -0.41731247 -1.4269975 0
-0.11750656 -0.42134294 -1.411842 0
-0.10904214 -0.42898294 -1.4164276 0
-0.10053627 -0.43646169 -1.4198987 0
-0.092069834 -0.44333848 -1.4201081 0
-0.083763495 -0.44918662 -1.415172 0
-0.075403064 -0.45547351 -1.412496 0
-0.066910148 -0.46240848 -1.4129159 0
-0.05838874 -0.46937805 -1.4134018 0
-0.049611621 -0.47724497 -1.4178401 0
-0.041345321 -0.4830963 -1.4131074 0
-0.032839723 -0.48982236 -1.4122732 0
-0.023950912 -0.49771446 -1.4163392 0
-0.014843524 -0.50609839 -1.4222089 0
-0.0067944974 -0.51130933 -1.4148163 0
0.0020799041 -0.51885366 -1.4169594 0
0.011022523 -0.52647984 -1.4192547 0
0.019250676 -0.53224045 -1.4141794 0
0.02822347 -0.53982818 -1.4161159 0
0.037182644 -0.54730332 -1.4174705 0
0.046124056 -0.5546695 -1.4182848 0
0.05500035 -0.56183594 -1.4182565 0
0.062958971 -0.5670225 -1.4111426 0
0.07274197 -0.5760175 -1.4173856 0
0.081243232 -0.58231306 -1.414108 0
0.089014024 -0.58718336 -1.4060529 0
0.09931238 -0.59694737 -1.4143133 0
0.10948667 -0.60632974 -1.420964 0
0.11772113 -0.61203456 -1.4155402 0
0.12628429 -0.61835372 -1.4121118 0
0.13456942 -0.62418211 -1.4071603 0
0.14442889 -0.63275015 -1.4106071 0
0.15294702 -0.63895744 -1.4067466 0
0.16337653 -0.64836335 -1.412352 0
0.17298983 -0.6563251 -1.4134673 0
0.18220256 -0.66358495 -1.4124186 0
0.19302754 -0.67339134 -1.4184873 0
0.20121561 -0.6789422 -1.4123968 0
0.2128679 -0.68989623 -1.4212081 0
0.22151874 -0.69612169 -1.4168379 0
0.23127674 -0.70402431 -1.4169462 0
0.23891459 -0.70871246 -1.4084632 0
0.24940218 -0.71765065 -1.4111242 0
0.26090759 -0.72801375 -1.4172326 0
0.26975214 -0.7344358 -1.4130925 0
0.2790907 -0.74155915 -1.4106809 0
0.28994542 -0.75080895 -1.4134276 0
0.29904509 -0.75753558 -1.4098505 0
0.31061131 -0.76767457 -1.4143956 0
0.31895822 -0.77330983 -1.4080538 0
0.33108544 -0.78410447 -1.4137576 0
0.3400616 -0.79055953 -1.4091973 0
0.35151976 -0.80033064 -1.4121374 0
0.36237091 -0.80923295 -1.4129126 0
0.3725636 -0.81722152 -1.4115032 0
0.38271087 -0.82511961 -1.4097857 0
0.39456224 -0.8351965 -1.4126577 0
0.40498322 -0.84337211 -1.411263 0
0.41346085 -0.84903479 -1.4044741 0
0.42784816 -0.86219084 -1.4132413 0
0.44044554 -0.87299299 -1.4168139 0
0.4528625 -0.88350296 -1.4195487 0
0.46158528 -0.88936675 -1.4127773 0
0.47289962 -0.89842713 -1.4123161 0
0.4873333 -0.91126859 -1.4190681 0
0.49199653 -0.91212952 -1.402438 0
0.50668854 -0.92518532 -1.409223 0
0.51682758 -0.93267965 -1.4052336 0
0.53206873 -0.9462533 -1.4124429 0
0.54640341 -0.95866013 -1.4171665 0
0.55304807 -0.96190608 -1.4050226 0
0.5634836 -0.96963561 -1.4010086 0
0.57749337 -0.98152113 -1.4042511 0
0.59186286 -0.99375939 -1.4078491 0
0.60235077 -1.0014417 -1.4033232 0
0.62212986 -1.019792 -1.4168851 0
0.63255793 -1.0273129 -1.4117116 0
0.64486605 -1.0369574 -1.4099988 0
0.65890217 -1.0485224 -1.4112852 0
0.66754681 -1.053951 -1.4023851 0
0.68449396 -1.0687017 -1.408443 0
0.69519413 -1.0763888 -1.4029634 0
0.70985663 -1.0884647 -1.4042777 0
0.72582322 -1.1019269 -1.4074953 0
0.73832697 -1.1115031 -1.4044868 0
0.75089103 -1.1211114 -1.4013833 0
0.76476192 -1.1321139 -1.400215 0
0.78217208 -1.1469223 -1.4044631 0
0.79896265 -1.160983 -1.4072959 0
0.81582665 -1.1750536 -1.4098473 0
0.83114082 -1.18739 -1.40964 0
0.84437382 -1.1974446 -1.4059972 0
0.8560577 -1.2058119 -1.3998613 0
0.87326062 -1.2200208 -1.4016371 0
0.89114106 -1.2348806 -1.4040053 0
0.90572453 -1.2461939 -1.4013216 0
0.92727232 -1.2647804 -1.4080595 0
0.93972039 -1.2737464 -1.4018167 0
0.9573158 -1.2880557 -1.4023516 0
0.97404003 -1.3013963 -1.4013724 0
0.99407423 -1.3181094 -1.4043881 0
1.0110505 -1.331588 -1.4030335 0
1.0255525 -1.3424668 -1.3982397 0
1.0466185 -1.3600365 -1.4013876 0
1.0644976 -1.3742689 -1.4001715 0
1.0858574 -1.391987 -1.402809 0
1.1062895 -1.4086825 -1.4038844 0
1.12244 -1.4209726 -1.3995472 0
1.1429932 -1.4376585 -1.4000078 0
1.1632829 -1.4540074 -1.3997582 0
1.1834272 -1.4701413 -1.3989512 0
1.1971049 -1.4797469 -1.3906839 0
1.2234994 -1.5019927 -1.3959545 0
1.2494334 -1.5236782 -1.4001477 0
1.2686728 -1.5386362 -1.3967957 0
1.2912663 -1.5568476 -1.396553 0
1.3155621 -1.576658 -1.3975903 0
1.3332878 -1.5899345 -1.3916137 0
1.3609442 -1.612883 -1.3950719 0
1.3875185 -1.6346738 -1.3969079 0
1.4075948 -1.6500463 -1.3920585 0
1.4312483 -1.6688327 -1.3902059 0
1.463982 -1.6963309 -1.3962249 0
1.4895841 -1.7168221 -1.3951198 0
1.5181245 -1.7400576 -1.3961323 0
1.5416857 -1.7584143 -1.3922477 0
1.5702374 -1.7814772 -1.3922218 0
1.5962801 -1.8020478 -1.3895344 0
1.6271819 -1.8271642 -1.3903928 0
1.6576148 -1.8517293 -1.390265 0
1.6907964 -1.8787967 -1.3917493 0
1.7225056 -1.9043584 -1.3914238 0
1.7511122 -1.9268893 -1.3880993 0
1.7913359 -1.9602547 -1.3930649 0
1.822247 -1.984741 -1.3902757 0
1.8524296 -2.0084467 -1.3863894 0
1.8903366 -2.0392685 -1.3875111 0
1.929103 -2.0707626 -1.3885039 0
1.9649571 -2.0994196 -1.3867307 0
1.998459 -2.1257806 -1.3826919 0
2.0423346 -2.1616266 -1.3849697 0
2.0814769 -2.1929581 -1.3832948 0
2.1252038 -2.2283797 -1.3838331 0
2.1699862 -2.2646246 -1.3842003 0
2.2065809 -2.2932217 -1.3786588 0
2.2548721 -2.3323929 -1.3795505 0
2.3048484 -2.3729396 -1.3805199 0
2.3585474 -2.4167049 -1.3826994 0
2.4070818 -2.4556031 -1.3809035 0
2.4581392 -2.4966276 -1.3796124 0
2.5094128 -2.5376809 -1.3774855 0
2.5713239 -2.5881565 -1.3800963 0
2.6190133 -2.625634 -1.3740778 0
2.6836166 -2.6781409 -1.3758655 0
2.7433028 -2.7260299 -1.3739625 0
2.810262 -2.7802234 -1.3745112 0
2.8704116 -2.8281257 -1.370541 0
2.9286242 -2.8741124 -1.3645638 0
2.9334035 -2.872483 -1.3331497 0
2.9366128 -2.8694847 -1.3011566 0
2.9395344 -2.8662574 -1.2691876 0
2.9396424 -2.8605752 -1.236177 0
2.9419308 -2.856848 -1.2042733 0
2.9477096 -2.8562136 -1.1739298 0
2.9420674 -2.8455825 -1.139185 0
2.9521375 -2.8487482 -1.1107475 0
2.9505291 -2.8417172 -1.0779537 0
2.9585514 -2.8431122 -1.0488522 0
2.9587114 -2.837676 -1.0170087 0
2.9602859 -2.833497 -0.98581839 0
2.9662058 -2.8331034 -0.95620012 0
2.9715343 -2.8322067 -0.92643851 0
2.9613495 -2.817946 -0.89192516 0
2.9730105 -2.8225431 -0.86432272 0
2.97243 -2.8166158 -0.83309257 0
2.971833 -2.8107028 -0.80201888 0
2.9789271 -2.8113935 -0.77317786 0
2.9763489 -2.8038301 -0.74182242 0
2.9813516 -2.8027565 -0.71255201 0
2.9740338 -2.7912169 -0.68035382 0
2.9852433 -2.7954404 -0.65270293 0
2.982754 -2.7880511 -0.62193149 0
2.9829068 -2.7829242 -0.59188867 0
2.9889956 -2.7828219 -0.56315881 0
2.9972665 -2.7845559 -0.53484643 0
2.9989276 -2.7807302 -0.50527936 0
2.9960887 -2.7731459 -0.4750087 0
3.0006325 -2.7717652 -0.44610485 0
2.9972868 -2.7638004 -0.41599816 0
3.0048051 -2.7649157 -0.38762605 0
3.1459205 -2.8771238 -0.37731591 0
3.3618441 -3.050976 -0.37389991 0
3.7541249 -3.3702264 -0.38716552 0
3.8993595 -3.4839795 -0.36665311 0
4.2205687 -3.7424772 -0.36085334 0
-0.23260546 -0.31536973 -1.422915 0
-0.22461033 -0.32275772 -1.4312389 0
-0.21519256 -0.3274999 -1.417819 0
-0.20696276 -0.33455968 -1.4231906 0
-0.19838578 -0.34090769 -1.4228684 0
-0.18955955 -0.34647292 -1.4168646 0
-0.18127009 -0.35376662 -1.4233469 0
-0.1724456 -0.35905302 -1.4157157 0
-0.16425231 -0.36742729 -1.4289556 0
-0.15563209 -0.37392166 -1.4293025 0
-0.14694059 -0.37980196 -1.4257361 0
-0.13831797 -0.38634324 -1.4263475 0
-0.12966782 -0.39240989 -1.4240549 0
-0.12104208 -0.39780796 -1.4179486 0
-0.11243919 -0.40390912 -1.4160653 0
-0.10378957 -0.41070601 -1.4180576 0
-0.095092408 -0.41762206 -1.4205403 0
-0.086480379 -0.4236196 -1.4180095 0
-0.077598758 -0.4313395 -1.4243987 0
-0.068904258 -0.43765166 -1.4233518 0
-0.060038783 -0.44473901 -1.4261022 0
-0.051531404 -0.45014256 -1.4205463 0
-0.042512722 -0.45764661 -1.4250695 0
-0.034114979 -0.46274713 -1.4182166 0
-0.025683299 -0.46810961 -1.4127511 0
-0.01570946 -0.47832283 -1.42898 0
-0.0072716475 -0.48360351 -1.423008 0
0.0015110895 -0.48992687 -1.4216406 0
0.010193326 -0.49596855 -1.4190612 0
0.019736238 -0.50417316 -1.4253979 0
0.028914697 -0.51132935 -1.4271818 0
0.03725221 -0.5164634 -1.4207888 0
0.045870788 -0.52229357 -1.4172479 0
0.055501737 -0.53032029 -1.4221562 0
0.06531062 -0.53859472 -1.4277374 0
0.072029062 -0.54048336 -1.4094015 0
0.083737724 -0.55242491 -1.4281707 0
0.090274729 -0.55414516 -1.409641 0
0.10110313 -0.56409895 -1.4206076 0
0.11019034 -0.57068884 -1.4194704 0
0.1187456 -0.57630467 -1.4149494 0
0.12951535 -0.58580077 -1.4234884 0
0.13812888 -0.59146774 -1.4190125 0
0.14762157 -0.59862101 -1.4194041 0
0.15716028 -0.60580599 -1.4197801 0
0.16697332 -0.61339068 -1.4212985 0
0.17698294 -0.62123191 -1.4234607 0
0.18451884 -0.62514788 -1.4134341 0
0.19581258 -0.63490438 -1.4212066 0
0.20422426 -0.64018095 -1.4153255 0
0.21410167 -0.64766312 -1.4159611 0
0.22480205 -0.65631127 -1.4198313 0
0.23388109 -0.66253185 -1.4165643 0
0.24631825 -0.67355323 -1.4267478 0
0.25519732 -0.67941308 -1.4222412 0
0.26388931 -0.6850127 -1.4170265 0
0.27470565 -0.69355106 -1.4197454 0
0.28659394 -0.70349073 -1.4259894 0
0.29384795 -0.70708537 -1.415313 0
0.30573037 -0.71690822 -1.420897 0
0.31716254 -0.72605264 -1.4244741 0
0.32920238 -0.73592496 -1.4296592 0
0.33847585 -0.74213469 -1.4254775 0
0.34694114 -0.74730051 -1.4187108 0
0.35838848 -0.75626838 -1.4211867 0
0.36779398 -0.76260662 -1.4171802 0
0.37903035 -0.77122104 -1.4185067 0
0.38710779 -0.77587557 -1.4104396 0
0.39925069 -0.78553951 -1.4139527 0
0.4119004 -0.79575682 -1.4184909 0
0.42304748 -0.80408704 -1.4185414 0
0.43518871 -0.81356907 -1.420994 0
0.44538486 -0.82067919 -1.418053 0
0.45850807 -0.83122683 -1.4224558 0
0.46606839 -0.83517921 -1.4125358 0
0.47998238 -0.84655666 -1.4183429 0
0.49274302 -0.85652125 -1.4209143 0
0.50406951 -0.86478007 -1.4197601 0
0.51472497 -0.87223828 -1.4168497 0
0.52534592 -0.8796339 -1.4137225 0
0.54056704 -0.89219308 -1.4207373 0
0.55082405 -0.89910448 -1.4163643 0
0.56050527 -0.90535867 -1.4106576 0
0.5742833 -0.91614091 -1.4135692 0
0.58544892 -0.92398655 -1.4106971 0
0.60254395 -0.93829691 -1.4197775 0
0.61169517 -0.94386172 -1.4123484 0
0.62539083 -0.95434642 -1.4138765 0
0.63792539 -0.96352732 -1.4128417 0
0.6518569 -0.97416615 -1.4142406 0
0.66978091 -0.98900759 -1.4228054 0
0.67805779 -0.993523 -1.4130505 0
0.69328851 -1.005386 -1.4159411 0
0.70742345 -1.0160357 -1.4165131 0
0.71772546 -1.0226293 -1.4100791 0
0.73547316 -1.0369569 -1.4164034 0
0.74861765 -1.0464354 -1.4144431 0
0.76270723 -1.0568506 -1.4138385 0
0.77786225 -1.0683136 -1.4147153 0
0.79464221 -1.0813829 -1.4178969 0
0.80725664 -1.0901479 -1.4140729 0
0.81975442 -1.0987653 -1.4098942 0
0.83797365 -1.1131253 -1.4143449 0
0.85254973 -1.1237507 -1.4128435 0
0.86830646 -1.1355134 -1.4128429 0
0.88292497 -1.1460898 -1.4108675 0
0.89757794 -1.1566578 -1.4086928 0
0.92058355 -1.1754407 -1.4181255 0
0.9370299 -1.1876597 -1.4177821 0
0.950257 -1.1966673 -1.4126995 0
0.96774775 -1.2098132 -1.4132186 0
0.98683554 -1.224455 -1.4155182 0
1.0024343 -1.2356423 -1.4128352 0
1.0186119 -1.2473454 -1.410643 0
1.037945 -1.2620412 -1.412185 0
1.0512676 -1.2709 -1.4058117 0
1.0773971 -1.2919825 -1.415054 0
1.0932547 -1.3031632 -1.411199 0
1.1117481 -1.3168064 -1.4102452 0
1.1298571 -1.3300277 -1.4085004 0
1.1531647 -1.3481005 -1.4124475 0
1.1749699 -1.3646746 -1.4141815 0
1.1975745 -1.3819227 -1.4163704 0
1.2129254 -1.392313 -1.4100972 0
1.2316031 -1.4057678 -1.4072326 0
1.2519729 -1.4207406 -1.4058614 0
1.2780715 -1.4409549 -1.4101483 0
1.2991565 -1.4564474 -1.4086928 0
1.3246617 -1.4759427 -1.4113613 0
1.3468549 -1.4923111 -1.4101917 0
1.3699095 -1.5093986 -1.4094682 0
1.3886507 -1.5224794 -1.4041312 0
1.41511 -1.5425305 -1.4058824 0
1.4452349 -1.5658174 -1.4105599 0
1.4677972 -1.5821593 -1.4076195 0
1.5006512 -1.6077149 -1.4136555 0
1.5157977 -1.6172312 -1.4031529 0
1.5461797 -1.6403816 -1.4059048 0
1.5746846 -1.6617508 -1.4064307 0
1.5990654 -1.6793506 -1.4029046 0
1.6382496 -1.710045 -1.4113628 0
1.6666396 -1.7310245 -1.4101051 0
1.6910923 -1.748433 -1.4051436 0
1.7260723 -1.7750612 -1.4081615 0
1.7543789 -1.7957004 -1.4052738 0
1.7951236 -1.8271719 -1.4114575 0
1.8230309 -1.8472654 -1.4071168 0
1.8575191 -1.8730243 -1.4071907 0
1.8844109 -1.8920579 -1.4010804 0
1.9277341 -1.9252921 -1.4063137 0
1.9603512 -1.9491031 -1.4031547 0
1.9952681 -1.9748044 -1.4010137 0
2.0411916 -2.0098908 -1.4057237 0
2.072206 -2.0319998 -1.3996012 0
2.1221275 -2.070246 -1.4053383 0
2.1536732 -2.0925953 -1.3982999 0
2.2029901 -2.1300335 -1.4019455 0
2.2487278 -2.1642621 -1.4024391 0
2.2983339 -2.2016346 -1.4044349 0
2.3397048 -2.2318661 -1.4006046 0
2.3907728 -2.2701771 -1.4017031 0
2.4363151 -2.303663 -1.3986977 0
2.4910762 -2.3447742 -1.4000473 0
2.5472257 -2.3868785 -1.4011467 0
2.5997477 -2.4257662 -1.399261 0
2.6583197 -2.4695523 -1.3996152 0
2.714252 -2.5109529 -1.3975376 0
2.7815483 -2.5616431 -1.4001859 0
2.8400319 -2.6048007 -1.3972418 0
2.9078836 -2.6555448 -1.3977735 0
2.9732642 -2.7040339 -1.395902 0
3.0440536 -2.7567856 -1.3953481 0
3.0918891 -2.7904208 -1.3831757 0
3.090519 -2.7834978 -1.3485775 0
3.0985739 -2.7843435 -1.3182752 0
3.1061668 -2.7848198 -1.2878275 0
3.0988414 -2.773129 -1.2513398 0
3.1020179 -2.770052 -1.2193906 0
3.1103537 -2.7711911 -1.1895783 0
3.1147456 -2.7691367 -1.1583022 0
3.1096182 -2.7593961 -1.1236287 0
3.1050863 -2.7501857 -1.089458 0
3.1213982 -2.7578177 -1.0628033 0
3.119998 -2.7511821 -1.0300206 0
3.1193202 -2.7451603 -0.99767494 0
3.1236351 -2.7431672 -0.9670974 0
3.1242492 -2.7382305 -0.93545842 0
3.1345708 -2.7410595 -0.9068625 0
3.1295846 -2.7316995 -0.87380326 0
3.1340642 -2.7298985 -0.84363127 0
3.1425312 -2.7312677 -0.81459391 0
3.1362052 -2.7209349 -0.78169429 0
3.1385577 -2.7174952 -0.75122571 0
3.1446197 -2.7169926 -0.72173989 0
3.1408899 -2.708797 -0.69000554 0
3.1444619 -2.7063618 -0.66008842 0
3.1510353 -2.7062857 -0.63086522 0
3.1571913 -2.7058828 -0.6015538 0
3.1552403 -2.6991599 -0.57067156 0
3.1535711 -2.692682 -0.53998983 0
3.1578944 -2.6908805 -0.51049864 0
3.1584854 -2.6861908 -0.48041216 0
3.1623425 -2.6840427 -0.45092937 0
3.1752315 -2.6888697 -0.42281017 0
3.2587657 -2.7480838 -0.40435866 0
3.4751065 -2.9091375 -0.40171441 0
3.8300848 -3.1758888 -0.41197827 0
4.0209117 -3.3158939 -0.39759442 0
4.3453398 -3.5574052 -0.39359048 0
-0.23280525 -0.31569105 -1.4256742 0
-0.22341809 -0.3205983 -1.4133563 0
-0.21533236 -0.32778683 -1.4201138 0
-0.20753646 -0.33590448 -1.4335883 0
-0.19854525 -0.34133881 -1.4260948 0
-0.18996093 -0.34774065 -1.4260559 0
-0.18092839 -0.35248482 -1.4143343 0
-0.17256159 -0.35958159 -1.4193231 0
-0.16395435 -0.36572385 -1.4176618 0
-0.15563476 -0.37394181 -1.4294322 0
-0.14697197 -0.38013935 -1.427852 0
-0.13827595 -0.38558209 -1.4217 0
-0.12967944 -0.39301184 -1.4276358 0
-0.12104894 -0.39734367 -1.4152561 0
-0.11242492 -0.40421042 -1.4177699 0
-0.10377748 -0.41086045 -1.4189104 0
-0.095109068 -0.41746762 -1.4197075 0
-0.086379595 -0.42435959 -1.4219078 0
-0.077606574 -0.43129164 -1.4241524 0
-0.069270074 -0.43571797 -1.4136137 0
-0.060103267 -0.44443777 -1.424618 0
-0.051812544 -0.44896081 -1.414847 0
-0.042852022 -0.45634565 -1.4189259 0
-0.033985227 -0.4632059 -1.4203389 0
-0.025144443 -0.46988186 -1.4207847 0
-0.016135037 -0.47701123 -1.4231517 0
-0.0074821934 -0.48299178 -1.4203424 0
0.0013659969 -0.48952734 -1.4199328 0
0.010360695 -0.4964073 -1.4209014 0
0.018866934 -0.50199556 -1.4164336 0
0.028466262 -0.51025224 -1.4228284 0
0.036301024 -0.51426589 -1.4120669 0
0.045498319 -0.52146387 -1.4140129 0
0.05608923 -0.53158534 -1.4270024 0
0.064317532 -0.53652346 -1.4199388 0
0.073296569 -0.54304886 -1.418897 0
0.083118029 -0.55120552 -1.423733 0
0.09197823 -0.55740887 -1.4213226 0
0.10052796 -0.5630244 -1.4168242 0
0.11086703 -0.57192314 -1.423746 0
0.11907824 -0.57689774 -1.4169711 0
0.12794057 -0.58305299 -1.4142696 0
0.13857067 -0.59222281 -1.4215064 0
0.14860117 -0.60026276 -1.4247431 0
0.15828833 -0.60766137 -1.4257213 0
0.16672251 -0.61298561 -1.4200208 0
0.17503786 -0.61814362 -1.4138657 0
0.18628168 -0.62790096 -1.4218615 0
0.19387028 -0.63191867 -1.4122012 0
0.20474172 -0.64096439 -1.4176542 0
0.21555933 -0.64983773 -1.4223322 0
0.22419864 -0.65542364 -1.4172679 0
0.23525682 -0.66452813 -1.4222481 0
0.24504018 -0.67172277 -1.4216095 0
0.25594282 -0.68046737 -1.4251597 0
0.26350218 -0.68447196 -1.4155501 0
0.27450272 -0.69327092 -1.4189914 0
0.28564388 -0.70219421 -1.4225456 0
0.29122382 -0.7035439 -1.4060323 0
0.3051706 -0.71616077 -1.4189645 0
0.31627879 -0.72488499 -1.4214953 0
0.32479268 -0.7301569 -1.4151388 0
0.33727533 -0.74057984 -1.4216144 0
0.34522083 -0.74509323 -1.4132991 0
0.35749397 -0.75513124 -1.4184347 0
0.36831427 -0.76326203 -1.418746 0
0.38013577 -0.77260149 -1.4217623 0
0.39017433 -0.77967227 -1.4192801 0
0.39985877 -0.78628623 -1.4156692 0
0.41299862 -0.79709435 -1.4215268 0
0.42053807 -0.80105472 -1.4117447 0
0.43193287 -0.80966473 -1.4123523 0
0.44221175 -0.81690276 -1.4097981 0
0.45435232 -0.82631695 -1.4118562 0
0.4682377 -0.83772385 -1.4179616 0
0.47936881 -0.84584188 -1.4168377 0
0.49213529 -0.85581827 -1.4194518 0
0.49875218 -0.85866928 -1.4072033 0
0.51629472 -0.87403059 -1.4204878 0
0.52694643 -0.88144958 -1.4173638 0
0.54156721 -0.89332068 -1.4229711 0
0.54929024 -0.89738584 -1.4130006 0
0.56595147 -0.91142476 -1.4223876 0
0.57436436 -0.91623068 -1.4137409 0
0.5858252 -0.92440069 -1.4114789 0
0.60014576 -0.93567157 -1.4148808 0
0.61064094 -0.94271398 -1.4102333 0
0.62855655 -0.95777416 -1.4201187 0
0.64069963 -0.9665153 -1.4182184 0
0.65132618 -0.97359765 -1.4132297 0
0.66408914 -0.98294055 -1.4121453 0
0.67391616 -0.9891305 -1.4054238 0
0.69252872 -1.0045843 -1.4145657 0
0.70410281 -1.0125484 -1.4106003 0
0.7204634 -1.0254909 -1.4148736 0
0.73984289 -1.0415025 -1.42393 0
0.74410379 -1.0417615 -1.4067954 0
0.75803143 -1.052031 -1.4060457 0
0.77807301 -1.06853 -1.415061 0
0.79011613 -1.076759 -1.4105954 0
0.80454975 -1.0873944 -1.4097763 0
0.82788825 -1.1070038 -1.4225982 0
0.83768624 -1.1128354 -1.413903 0
0.85215265 -1.1233519 -1.4122429 0
0.86860907 -1.1358162 -1.4132932 0
0.88651389 -1.1496655 -1.4161246 0
0.89538032 -1.1544769 -1.4055244 0
0.91573697 -1.1706496 -1.4112477 0
0.93395692 -1.1846336 -1.4134896 0
0.9483332 -1.1947801 -1.4100546 0
0.9687168 -1.2107604 -1.41453 0
0.98592871 -1.223572 -1.4143101 0
0.99986738 -1.233152 -1.4094691 0
1.0175885 -1.2463562 -1.409322 0
1.0326825 -1.2569722 -1.4054976 0
1.0602169 -1.2794899 -1.4170064 0
1.0752267 -1.2899064 -1.4123811 0
1.0905204 -1.3005568 -1.4078846 0
1.1124647 -1.3174872 -1.4111004 0
1.1339976 -1.3339481 -1.4133644 0
1.1483263 -1.3435346 -1.4068526 0
1.169992 -1.359992 -1.4085149 0
1.193339 -1.3779515 -1.4116246 0
1.2137046 -1.393041 -1.4109564 0
1.2305464 -1.4047834 -1.4060854 0
1.2530406 -1.4217322 -1.4070023 0
1.2761039 -1.4391333 -1.4080789 0
1.2970241 -1.454479 -1.4064853 0
1.3264601 -1.4775976 -1.4131933 0
1.350809 -1.4959389 -1.414156 0
1.3700018 -1.509483 -1.4095591 0
1.3923119 -1.5258186 -1.4076859 0
1.4173015 -1.5445236 -1.4079762 0
1.4403569 -1.5613937 -1.4059743 0
1.4607157 -1.5757557 -1.4010696 0
1.4891671 -1.5973599 -1.403206 0
1.5252268 -1.6257097 -1.4115932 0
1.5554663 -1.6487086 -1.4140817 0
1.5734687 -1.6606636 -1.4053776 0
1.6031719 -1.6830127 -1.4064025 0
1.6311216 -1.7037057 -1.4053923 0
1.6576625 -1.723062 -1.4027115 0
1.6907636 -1.7481421 -1.4048774 0
1.7249658 -1.7740849 -1.4072804 0
1.7536755 -1.7950814 -1.4047232 0
1.7845153 -1.817861 -1.4032975 0
1.8150072 -1.8402411 -1.4010509 0
1.854861 -1.8707033 -1.4052161 0
1.8886304 -1.895733 -1.40416 0
1.922991 -1.9211715 -1.4029131 0
1.9614227 -1.9500316 -1.4039092 0
1.9973981 -1.9766461 -1.402487 0
2.0315566 -2.0015819 -1.3991797 0
2.0733545 -2.0329878 -1.400367 0
2.1195288 -2.0680158 -1.4036374 0
2.152827 -2.091871 -1.3977563 0
2.1991613 -2.1267636 -1.399532 0
2.2462347 -2.162138 -1.4008974 0
2.2878408 -2.1927161 -1.3980702 0
2.3444076 -2.2358539 -1.4034022 0
2.389164 -2.2688162 -1.4007648 0
2.437253 -2.3044548 -1.3992341 0
2.4872575 -2.3415585 -1.3979082 0
2.5421405 -2.3826063 -1.3983556 0
2.5948179 -2.421634 -1.3966109 0
2.658145 -2.4694061 -1.3995231 0
2.7121041 -2.509161 -1.3964309 0
2.7707598 -2.5526617 -1.3947459 0
2.8323617 -2.5984297 -1.393458 0
2.8987818 -2.648001 -1.3933823 0
2.9710515 -2.702204 -1.3948582 0
3.0490122 -2.7608771 -1.3976338 0
3.113574 -2.808274 -1.392941 0
3.1432512 -2.8268182 -1.3717668 0
3.1459122 -2.823148 -1.3385957 0
3.1483254 -2.8193035 -1.3054845 0
3.1442389 -2.8101816 -1.2698828 0
3.1557922 -2.8138473 -1.2408011 0
3.1562109 -2.8084583 -1.2073669 0
3.1571891 -2.8035557 -1.1743344 0
3.1620669 -2.8018384 -1.1429096 0
3.1561184 -2.7913942 -1.1077044 0
3.1673591 -2.7948527 -1.0787766 0
3.1714015 -2.7925153 -1.0473738 0
3.1658061 -2.7824612 -1.0129079 0
3.1777418 -2.7864919 -0.98429465 0
3.1759057 -2.7795069 -0.95137095 0
3.1713367 -2.7703764 -0.91782951 0
3.1875317 -2.7778103 -0.89052618 0
3.1881666 -2.772861 -0.85872257 0
3.1931882 -2.7714114 -0.8282373 0
3.1785185 -2.7543974 -0.79268575 0
3.1917579 -2.759481 -0.76453841 0
3.1937463 -2.7556839 -0.73356748 0
3.1947522 -2.7511311 -0.70246458 0
3.1979039 -2.7482798 -0.67194772 0
3.2019501 -2.7461402 -0.6416868 0
3.202378 -2.7411819 -0.61073649 0
3.20012 -2.734148 -0.57937467 0
3.1989634 -2.7279978 -0.54837191 0
3.2065907 -2.7286901 -0.51904142 0
3.206619 -2.7234886 -0.48841378 0
3.2142472 -2.7241814 -0.45908222 0
3.2170992 -2.7211812 -0.42900401 0
3.2464345 -2.7385862 -0.40264675 0
3.4665189 -2.9025366 -0.40060011 0
3.710624 -3.084249 -0.39755878 0
3.9993165 -3.299361 -0.39518261 0
4.3360858 -3.5503349 -0.39264029 0
-0.22116202 -0.30293187 -1.4248532 0
-0.21247779 -0.30919811 -1.4280862 0
-0.20349412 -0.31496134 -1.4270675 0
-0.19480097 -0.32137293 -1.4311467 0
-0.18543683 -0.32614738 -1.4226046 0
-0.17640045 -0.33158386 -1.4193921 0
-0.16786394 -0.33876342 -1.4287585 0
-0.15878882 -0.34406829 -1.4245924 0
-0.14971146 -0.34907544 -1.4186108 0
-0.1409519 -0.35606545 -1.4259337 0
-0.13187757 -0.36050719 -1.4165337 0
-0.12298793 -0.36672592 -1.4186555 0
-0.1140671 -0.37373716 -1.4254611 0
-0.10511203 -0.37883228 -1.4205033 0
-0.096152447 -0.38470715 -1.4202584 0
-0.087122343 -0.39120945 -1.4235383 0
-0.078158088 -0.39681756 -1.4216563 0
-0.069152422 -0.40273032 -1.4214568 0
-0.060048386 -0.40910369 -1.4236581 0
-0.051012002 -0.41498923 -1.4231704 0
-0.041586146 -0.42244095 -1.4306256 0
-0.032697231 -0.42755032 -1.4260191 0
-0.023452163 -0.43397754 -1.4279823 0
-0.014089659 -0.44066334 -1.4310439 0
-0.0055413842 -0.44481343 -1.4219817 0
0.0035721138 -0.45071447 -1.4212791 0
0.012861356 -0.45704499 -1.4224786 0
0.022241399 -0.46352831 -1.4242413 0
0.031073615 -0.46863645 -1.4198546 0
0.041066393 -0.47641027 -1.4269931 0
0.049360916 -0.48032695 -1.4175311 0
0.059887931 -0.48902678 -1.428148 0
0.069475532 -0.49561536 -1.429718 0
0.077758148 -0.49960005 -1.4207164 0
0.087686136 -0.50678527 -1.4245428 0
0.098787293 -0.5160203 -1.4361074 0
0.10678205 -0.51952672 -1.4253569 0
0.11663891 -0.52636701 -1.4273756 0
0.12520747 -0.53096688 -1.4209611 0
0.13486418 -0.53740513 -1.4213423 0
0.14436541 -0.54355067 -1.4205699 0
0.15545301 -0.55217046 -1.4284556 0
0.16396831 -0.55668759 -1.4217523 0
0.17491175 -0.5649215 -1.4278742 0
0.18478726 -0.5714643 -1.4280133 0
0.19568001 -0.57945424 -1.432858 0
0.20336492 -0.58275461 -1.4220984 0
0.21445946 -0.59093857 -1.427312 0
0.22336729 -0.59599817 -1.4223275 0
0.23309611 -0.60219204 -1.4209369 0
0.24487238 -0.61112213 -1.4279468 0
0.25440699 -0.61697394 -1.4252588 0
0.26476461 -0.62389207 -1.4257439 0
0.27453768 -0.63001418 -1.4237403 0
0.28541154 -0.63752258 -1.425739 0
0.29898143 -0.64837784 -1.4372449 0
0.30621761 -0.65121067 -1.4254458 0
0.318313 -0.66008693 -1.4308509 0
0.32654595 -0.6641804 -1.422708 0
0.33988625 -0.6744535 -1.431601 0
0.34835523 -0.6788156 -1.4241431 0
0.36339396 -0.69094837 -1.4375162 0
0.37133765 -0.69465786 -1.4282025 0
0.38136125 -0.70080453 -1.4253448 0
0.38885832 -0.70403981 -1.4149425 0
0.40294039 -0.71478939 -1.4237555 0
0.41365379 -0.72164953 -1.4224632 0
0.42560351 -0.72986078 -1.4244167 0
0.43534666 -0.73558044 -1.4200917 0
0.44875807 -0.7453168 -1.4254433 0
0.45810956 -0.75056136 -1.419804 0
