# .PCD v0.7 - Point Cloud Data file format
VERSION 0.7
FIELDS x y z rgb
SIZE 4 4 4 4
TYPE F F F F
COUNT 1 1 1 1
WIDTH 1243
HEIGHT 1
VIEWPOINT 0 0 0 1 0 0 0
POINTS 1243
DATA ascii
0.15070474 0.014678597 0.10099816 0
0.14337766 0.014126778 0.10225284 0
0.13463485 0.014045119 0.10444725 0
0.13445854 0.011404395 0.10130155 0
0.12265372 0.012346029 0.1055361 0
0.11726391 0.011358619 0.10575616 0
0.11453545 0.0095546246 0.10429132 0
0.11155903 0.0078371763 0.10299599 0
0.10831249 0.006216526 0.10188854 0
0.099100232 0.0065767765 0.10474014 0
0.093559265 0.0057709217 0.10521936 0
0.083219647 0.0066213608 0.10895932 0
0.075667858 0.0065879822 0.11089969 0
0.07714045 0.0034679174 0.10674214 0
0.069304585 0.003592968 0.10894847 0
0.066491127 0.0019806623 0.10773754 0
0.068918586 -0.0015137196 0.10287702 0
0.047544122 0.0036424398 0.1147157 0
0.054569721 -0.0015232563 0.10662901 0
0.04610765 -0.00097584724 0.10951018 0
0.045758605 -0.0034413338 0.10662162 0
0.039774537 -0.0037618876 0.1078037 0
0.04056561 -0.006673336 0.1040771 0
0.026689649 -0.0038534403 0.11112499 0
0.032076478 -0.0085730553 0.10400736 0
0.02876699 -0.0098668337 0.10331166 0
0.020817518 -0.0092616081 0.10612822 0
0.01138413 -0.0079889297 0.11014068 0
0.01376617 -0.011562109 0.10519695 0
0.011533141 -0.013234496 0.10376108 0
0.013997436 -0.016905189 0.098677993 0
0.016406655 -0.020596266 0.093584538 0
0.0044819117 -0.018084049 0.09974885 0
0.0043288469 -0.020662665 0.096672177 0
-0.0036042929 -0.019791245 0.09980619 0
0.0021742582 -0.025043368 0.091942191 0
0.15566456 0.01380229 0.097208261 0
0.14508009 0.014197826 0.1004678 0
0.13409162 0.014784575 0.10406578 0
0.12900114 0.013649106 0.10402298 0
0.12281156 0.012878776 0.10471237 0
0.10876405 0.014600873 0.11049283 0
0.11355746 0.010453343 0.10419571 0
0.10838377 0.0094498396 0.10433507 0
0.10032213 0.0094127655 0.10640669 0
0.092321992 0.0094071627 0.10850048 0
0.087094903 0.0085277557 0.10880446 0
0.075954318 0.0096752644 0.11312366 0
0.077227712 0.0066527128 0.10911751 0
0.075838685 0.0045251846 0.10689771 0
0.077670932 0.0012625456 0.10245311 0
0.064695001 0.0032293797 0.10824955 0
0.065956473 0.0001707077 0.10420239 0
0.057141662 0.00075387955 0.1072253 0
0.052426696 -0.00011348724 0.1074096 0
0.045442939 -0.00010895729 0.10924876 0
0.038110375 7.2836876e-05 0.111395 0
0.042860866 -0.00431633 0.1048156 0
0.029611707 -0.0018017292 0.11134923 0
0.030848026 -0.0048552752 0.10731494 0
0.034191012 -0.0087734461 0.10167742 0
0.024663091 -0.0075805187 0.10562837 0
0.019050479 -0.0079048872 0.10670793 0
0.016834617 -0.0095889568 0.1052438 0
0.011581779 -0.010009408 0.10611236 0
0.022576571 -0.017224789 0.09446013 0
0.010401368 -0.01471889 0.10070097 0
0.0042079687 -0.014685392 0.10236788 0
0.005674243 -0.017941594 0.098027349 0
0.0040398836 -0.019868612 0.096115351 0
-0.003297925 -0.019262195 0.098778725 0
-0.0051189661 -0.021084666 0.097042918 0
-0.00083887577 -0.025685787 0.090329528 0
0.14839184 0.016483545 0.1013155 0
0.13878715 0.016614795 0.10399556 0
0.12507606 0.018036246 0.10933053 0
0.12711513 0.014778137 0.10481226 0
0.12661314 0.012268782 0.10187614 0
0.12491894 0.010118842 0.099692106 0
0.11812162 0.0095770359 0.10081279 0
0.11206114 0.0088398457 0.10150158 0
0.10458171 0.0085964203 0.10316622 0
0.091182828 0.010341644 0.10881507 0
0.092975736 0.0071355104 0.10442495 0
0.086666703 0.0066245794 0.1054554 0
0.080805421 0.005998373 0.10622752 0
0.077867746 0.0043967962 0.10504019 0
0.066343546 0.0058051348 0.10978532 0
0.064288616 0.0039459467 0.1080513 0
0.059553742 0.0030480623 0.10819578 0
0.049593449 0.004070282 0.11205852 0
0.049217582 0.0016446114 0.10919166 0
0.048598647 -0.00070464611 0.10648191 0
0.040599823 -0.00028955936 0.10908782 0
0.029428601 0.0013885498 0.11407018 0
0.032679915 -0.0024065971 0.10857725 0
0.030707598 -0.0042126179 0.10688674 0
0.02169013 -0.0032383204 0.11044347 0
0.028696179 -0.0085963011 0.10205495 0
0.018110156 -0.0069313049 0.10686779 0
0.022047162 -0.011121392 0.10071218 0
0.01925981 -0.01258707 0.099651694 0
0.011653781 -0.01202929 0.1023289 0
0.0073417425 -0.012811184 0.10250413 0
0.00778234 -0.015605569 0.098972321 0
0.0079146624 -0.018290401 0.095655084 0
0.0026298761 -0.018623948 0.096633792 0
-0.0022759438 -0.019092798 0.097347498 0
0.0068451166 -0.025818467 0.08673203 0
0.0026049614 -0.026602507 0.08688581 0
0.14835083 0.01714015 0.10084271 0
0.14272201 0.016100883 0.10104334 0
0.13172615 0.01669395 0.10465562 0
0.12896991 0.01486659 0.10313523 0
0.11744726 0.01573503 0.10722375 0
0.11688459 0.013275385 0.10435188 0
0.11139667 0.012355685 0.1046623 0
0.11095774 0.0098543167 0.10170674 0
0.10024655 0.010661483 0.10550725 0
0.094039321 0.010067105 0.10640574 0
0.092414737 0.0079886913 0.10428035 0
0.084693909 0.0079557896 0.10626519 0
0.07851398 0.0074481964 0.10726297 0
0.083412528 0.003159523 0.10071313 0
0.066789985 0.006320715 0.10895407 0
0.061406732 0.005638957 0.10952914 0
0.056131959 0.0049488544 0.11006558 0
0.049718857 0.0047004223 0.11144269 0
0.054175258 0.00050759315 0.1051265 0
0.041531086 0.002602458 0.11101484 0
0.039979458 0.00062775612 0.1089977 0
0.03606689 -0.00045287609 0.1086973 0
0.033245444 -0.001935482 0.10761726 0
0.028667092 -0.002726078 0.10784769 0
0.022940516 -0.0030403137 0.10896409 0
0.025306106 -0.0065447092 0.10404146 0
0.019107223 -0.0066357851 0.10555553 0
0.020341635 -0.0097203255 0.1014452 0
0.013216138 -0.0093840361 0.10372698 0
0.0072516203 -0.0094834566 0.10516942 0
0.0076066256 -0.012214422 0.10172379 0
-0.0021013021 -0.010667562 0.1061691 0
0.0033121109 -0.015582085 0.098715901 0
-0.0021992922 -0.015792966 0.09990263 0
0.003513217 -0.020933032 0.092094064 0
0.0027223825 -0.023242235 0.08946681 0
-0.0028423071 -0.023404717 0.090726972 0
-0.001170516 -0.026842117 0.086068511 0
0.1562016 0.016201615 0.094816089 0
0.15048707 0.015161157 0.095025659 0
0.13217652 0.017892718 0.10321772 0
0.12139142 0.018490195 0.10678875 0
0.11848938 0.016753912 0.10539758 0
0.11672652 0.014673471 0.10328043 0
0.10760367 0.014897823 0.10595286 0
0.10457981 0.013245344 0.10469735 0
0.095652819 0.013500452 0.10735643 0
0.089921355 0.012773037 0.10795844 0
0.085111856 0.011773348 0.10798097 0
0.077911258 0.011597157 0.10965216 0
0.077765584 0.0090776682 0.10656655 0
0.069660544 0.0092715025 0.10893381 0
0.070361733 0.0064617395 0.10526586 0
0.060615897 0.0073008537 0.10886395 0
0.062421083 0.0040977001 0.10441852 0
0.056818128 0.0035305023 0.10518551 0
0.049423933 0.0036486387 0.10727251 0
0.047223687 0.0018980503 0.10567927 0
0.041000724 0.0016525984 0.10700798 0
0.03320992 0.0020388365 0.1095314 0
0.022639394 0.0035419464 0.114169 0
0.035834193 -0.0040806532 0.10125506 0
0.024084687 -0.0020663738 0.10683596 0
0.022758365 -0.0040948391 0.10466886 0
0.020124793 -0.0056049824 0.10348737 0
0.011446357 -0.0046546459 0.10694325 0
0.009719491 -0.006496191 0.10511303 0
0.0084377527 -0.0085252523 0.10293353 0
0.007024169 -0.010505438 0.10084915 0
0.0038341284 -0.011736155 0.10016024 0
-0.0035909414 -0.011133313 0.10285628 0
-0.0046261549 -0.013257623 0.10049415 0
0.0032502413 -0.019313216 0.090918541 0
-0.0007904768 -0.020164013 0.090924144 0
-0.011954069 -0.01778841 0.096799254 0
-0.0094596148 -0.0215379 0.091495633 0
-0.0090950727 -0.024353623 0.087908506 0
0.15803587 0.016162157 0.093030334 0
0.14444399 0.017416 0.098164678 0
0.1320833 0.018398523 0.10263717 0
0.13082254 0.016136289 0.10014474 0
0.12323296 0.015792012 0.10170829 0
0.11281931 0.016363263 0.1051563 0
0.11545026 0.012933493 0.10018444 0
0.10500777 0.013599396 0.10375798 0
0.10498917 0.010996699 0.10051453 0
0.092626929 0.012383223 0.10549176 0
0.08910048 0.010953069 0.10463285 0
0.080318451 0.011285782 0.1073544 0
0.07915628 0.0091075897 0.10494101 0
0.068279624 0.010239482 0.10921025 0
0.060426354 0.010403156 0.11147678 0
0.066857576 0.0056174994 0.10381496 0
0.051510096 0.0084779263 0.11141562 0
0.049032092 0.0068380833 0.11001968 0
0.047199607 0.004968524 0.10816753 0
0.043635488 0.0037350655 0.10756409 0
0.038390994 0.0031411648 0.10820007 0
0.038477302 0.00056910515 0.10496724 0
0.030327439 0.0011180639 0.10779274 0
0.027517915 -0.00033640862 0.1067152 0
0.023357511 -0.0012559891 0.10666025 0
0.018441558 -0.0018564463 0.1072017 0
0.016592145 -0.0036553144 0.10544229 0
0.00918293 -0.0032068491 0.10794783 0
0.019316554 -0.0098843575 0.096952319 0
0.011238933 -0.0091395378 0.10000324 0
0.0033003092 -0.008394599 0.10301781 0
0.0081276894 -0.012999773 0.096002221 0
0.0029643774 -0.013390899 0.096870184 0
0.0042241812 -0.016535044 0.092615008 0
0.0023370981 -0.018332362 0.0908674 0
-0.0079528093 -0.016406059 0.095974088 0
-0.0061900616 -0.019801259 0.091273546 0
-0.0034857988 -0.023661971 0.085744739 0
-0.0081619024 -0.024187088 0.08631742 0
-0.0086535215 -0.026625991 0.083402514 0
0.15378559 0.018522739 0.094509482 0
0.14443266 0.018552303 0.097004771 0
0.14251244 0.016459584 0.094864845 0
0.13095653 0.017232418 0.098878503 0
0.12836468 0.015380144 0.097218871 0
0.12614822 0.013418198 0.095322251 0
0.11477542 0.014293075 0.099416614 0
0.10967338 0.013277888 0.099474549 0
0.10447609 0.01231885 0.099628448 0
0.087683082 0.015119433 0.10758102 0
0.081090093 0.014717579 0.10880589 0
0.08444047 0.011070609 0.10331666 0
0.073103309 0.012292385 0.10784018 0
0.070931792 0.010488868 0.10613179 0
0.065668583 0.009747982 0.10657871 0
0.059241295 0.0094399452 0.10787857 0
0.05617106 0.0079902411 0.1068536 0
0.054010987 0.0062263012 0.10519207 0
0.046718955 0.0063138008 0.1072191 0
0.042067409 0.0054852962 0.10739458 0
0.043886542 0.0022912025 0.10288012 0
0.029604793 0.0050811768 0.11015916 0
0.026659846 0.003693819 0.10917997 0
0.031926274 -0.00082778931 0.10208213 0
0.022413611 0.00030970573 0.1060195 0
0.018590569 -0.0007134676 0.10573113 0
0.018267035 -0.0031077862 0.10279059 0
0.016553164 -0.0049594641 0.10090101 0
0.0082749128 -0.0041484833 0.10410154 0
0.0075237751 -0.0063698292 0.10149181 0
0.0039716959 -0.0074388981 0.10107434 0
-0.00052261353 -0.0080971718 0.10142362 0
0.0013593435 -0.011442542 0.096701503 0
-0.0059425831 -0.010875821 0.099336743 0
-0.0056971312 -0.013540506 0.095904708 0
-0.011396527 -0.013612032 0.097312212 0
-0.0056056976 -0.018760443 0.08928442 0
-0.011470437 -0.018741846 0.09084928 0
-0.012835145 -0.020733118 0.088691592 0
-0.02112782 -0.019542575 0.092375398 0
-0.013367057 -0.025760055 0.082478762 0
0.14258134 0.019656897 0.097767472 0
0.14054668 0.017610073 0.095702291 0
0.12717593 0.018927574 0.10088468 0
0.11928737 0.018687963 0.10265076 0
0.1146394 0.017508507 0.102373 0
0.12382352 0.012079597 0.093068123 0
0.10017955 0.016831636 0.10530841 0
0.094323397 0.016122699 0.10594511 0
0.095778584 0.013098359 0.10172248 0
0.087639213 0.013166785 0.10394561 0
0.080615878 0.012919188 0.10547459 0
0.0762012 0.011844039 0.10526788 0
0.075672865 0.0094765425 0.10239995 0
0.065177798 0.010507345 0.10646343 0
0.060382962 0.0096364021 0.10661578 0
0.055732489 0.0087395906 0.10669744 0
0.045850873 0.0097237825 0.11054087 0
0.050217032 0.0056552887 0.10422826 0
0.039648652 0.0069664717 0.10866714 0
0.03260839 0.0070542097 0.11062622 0
0.031284928 0.005056262 0.10843623 0
0.030365586 0.0029001236 0.10593951 0
0.032492042 -0.00042819977 0.10115469 0
0.019070745 0.0022139549 0.10803246 0
0.0109905 0.0028727055 0.11098993 0
0.01381433 -0.00072598457 0.10567868 0
0.013496757 -0.0031116009 0.1027323 0
0.0084043741 -0.0035790205 0.10347533 0
0.0026876926 -0.0037612915 0.10474432 0
-0.0012649298 -0.0046391487 0.10466695 0
0.0025023222 -0.0087351799 0.09847641 0
-0.0042563677 -0.0084223747 0.10064757 0
-0.0076602697 -0.0095026493 0.10016906 0
-0.0053099394 -0.013066173 0.095026851 0
-0.013543606 -0.01202774 0.09850657 0
-0.013024688 -0.014812708 0.094833732 0
-0.012308955 -0.017711639 0.090964198 0
-0.013543725 -0.019753218 0.088695645 0
-0.013530135 -0.022376299 0.085361004 0
-0.022882581 -0.020672679 0.089979291 0
-0.024288893 -0.022624135 0.087870002 0
0.14647996 0.020012498 0.094228745 0
0.13064587 0.021982312 0.10091019 0
0.13721442 0.01744318 0.093369484 0
0.12255919 0.019191384 0.099457383 0
0.11914337 0.017630935 0.098354697 0
0.11074722 0.017613649 0.10053706 0
0.098142266 0.018959761 0.10557151 0
0.095770001 0.017163277 0.10389245 0
0.093819022 0.015235782 0.10193503 0
0.08714366 0.014838457 0.10317862 0
0.083600163 0.013453126 0.10233378 0
0.074964285 0.013773084 0.10501122 0
0.072693706 0.012007713 0.10334539 0
0.065578103 0.011895895 0.10507023 0
0.052301049 0.013953447 0.11119282 0
0.053805947 0.010945916 0.10694408 0
0.044798017 0.011625767 0.11018026 0
0.039535522 0.011026502 0.11079419 0
0.037020802 0.0094609261 0.10944843 0
0.034952044 0.0077369213 0.1077826 0
0.028514385 0.0076360703 0.10934353 0
0.028340459 0.0052218437 0.10629582 0
0.019778848 0.0059809685 0.1095165 0
0.024716258 0.0016061068 0.1026144 0
0.016980529 0.0021024942 0.10528159 0
0.012416244 0.0014023781 0.10558283 0
0.0159024 -0.0024826527 0.099689603 0
0.011266351 -0.0031429529 0.1000607 0
-0.0042179823 0.00064718723 0.10898268 0
-0.0019866228 -0.0027463436 0.10404861 0
-0.001539588 -0.0054349899 0.10048616 0
0.00012147427 -0.0086598396 0.09591794 0
-2.7179718e-05 -0.011147499 0.092769504 0
-0.009049058 -0.00981915 0.096840262 0
-0.010436654 -0.011758804 0.094719291 0
-0.015568376 -0.012049794 0.095693707 0
-0.017549992 -0.013717771 0.094076753 0
-0.017263889 -0.016411781 0.090549707 0
-0.024003148 -0.015917659 0.09295249 0
-0.024010539 -0.01848793 0.089660883 0
-0.030622721 -0.017991662 0.092033029 0
-0.02551806 -0.022987008 0.084291935 0
0.14600134 0.021388888 0.093619704 0
0.14001334 0.020495296 0.09403336 0
0.1273061 0.02160728 0.098805547 0
0.12673938 0.019189596 0.095824599 0
0.12289393 0.017750382 0.094970107 0
0.11430442 0.017776728 0.09725678 0
0.10152709 0.019153833 0.10239053 0
0.10758293 0.014707923 0.095047116 0
0.09044826 0.0175699 0.10324585 0
0.088474274 0.015673995 0.1013093 0
0.08190906 0.015275955 0.10251582 0
0.076959968 0.014382482 0.10265732 0
0.06710279 0.015156269 0.10624397 0
0.061715961 0.01448226 0.10678434 0
0.052702308 0.015081525 0.1099242 0
0.048953414 0.013913035 0.10939467 0
0.051677704 0.01048398 0.10424125 0
0.039634228 0.012271166 0.10971344 0
0.038832545 0.010095954 0.10710788 0
0.031376481 0.010337591 0.10937631 0
0.026828766 0.0095546246 0.10955524 0
0.028566718 0.0064462423 0.10507572 0
0.021860957 0.0064976215 0.10690093 0
0.0097893476 0.0086447001 0.11284626 0
0.016018867 0.0037983656 0.1049391 0
0.012978554 0.0025086403 0.10406685 0
0.012329817 0.00028073788 0.10135305 0
0.0066663027 5.1617622e-05 0.10254192 0
0.001008153 -0.00014531612 0.10377085 0
-0.0065873861 0.0004876852 0.1065824 0
-0.0022536516 -0.0037790537 0.099922538 0
0.001034379 -0.0076670647 0.0940274 0
-0.008103013 -0.0063276291 0.098157525 0
-0.015590549 -0.0056277514 0.10102713 0
-0.017652392 -0.007232666 0.099490523 0
-0.020624518 -0.0084366798 0.098711371 0
-0.020565391 -0.010978818 0.095405221 0
-0.020774484 -0.013421416 0.09229815 0
-0.030841351 -0.011400461 0.097554326 0
-0.02476418 -0.016720533 0.089073896 0
-0.024771094 -0.019295335 0.085742593 0
-0.024177909 -0.022173882 0.081860781 0
-0.027577162 -0.02318275 0.08144629 0
-0.029271841 -0.024997473 0.079541683 0
0.15119922 0.02043879 0.089403987 0
0.13669741 0.021978855 0.095228434 0
0.13049638 0.021193385 0.095834374 0
0.12366462 0.020628214 0.096893668 0
0.11378753 0.021014929 0.099996448 0
0.11688924 0.017520785 0.094620109 0
0.10786343 0.017720342 0.097254634 0
0.10034478 0.017506838 0.098953605 0
0.095122933 0.01661253 0.099159956 0
0.089214921 0.015964746 0.099868417 0
0.0762254 0.017645597 0.10547888 0
0.076449275 0.015078783 0.10206997 0
0.070468068 0.014557481 0.10296285 0
0.061867118 0.01495254 0.10574067 0
0.054002166 0.015152693 0.10807073 0
0.051513553 0.013547182 0.10662985 0
0.047077775 0.012626767 0.1065954 0
0.044541359 0.011055946 0.10521233 0
0.03992188 0.010236621 0.10535812 0
0.031211257 0.010923862 0.10854614 0
0.027696848 0.0097637177 0.10795653 0
0.028380632 0.0070580244 0.10424531 0
0.023155332 0.006550312 0.1049571 0
0.019010544 0.0056607723 0.10488641 0
0.017863274 0.0036371946 0.10254705 0
0.017065525 0.0014698505 0.099928141 0
0.016669393 -0.00086665154 0.096982837 0
0.0058158636 0.00095200539 0.10221136 0
0.0034850836 -0.00058507919 0.1008184 0
-5.9247017e-05 -0.0016236305 0.1003952 0
-0.0072706938 -0.0011334419 0.10293174 0
-0.0069328547 -0.0037463903 0.099432588 0
-0.0059483051 -0.006655097 0.095377326 0
-0.014889717 -0.005351305 0.099430919 0
-0.013646364 -0.0083818436 0.095148444 0
-0.016244769 -0.0097651482 0.094026566 0
-0.022885203 -0.0093559027 0.096307397 0
-0.023183465 -0.011736274 0.093279004 0
-0.023813605 -0.013983965 0.090511203 0
-0.031701684 -0.012927651 0.093964696 0
-0.030573964 -0.015980244 0.089684129 0
-0.028349996 -0.019578338 0.084403038 0
-0.027083397 -0.022768617 0.079906106 0
-0.036816478 -0.020736098 0.08511889 0
-0.031422615 -0.025934458 0.076915622 0
0.14321363 0.021395326 0.0902915 0
0.13118362 0.022282958 0.094618559 0
0.12203717 0.02240026 0.097173929 0
0.11613846 0.021604657 0.097674727 0
0.11266696 0.020106196 0.096612453 0
0.10405433 0.020195603 0.098991156 0
0.095685482 0.020262957 0.10127676 0
0.094227552 0.018208027 0.098953128 0
0.081641793 0.019695401 0.10421574 0
0.076953292 0.018720746 0.10416281 0
0.07399714 0.017202616 0.10293949 0
0.066434622 0.017217755 0.10494483 0
0.064169765 0.015504003 0.10328233 0
0.059274316 0.014685869 0.10349 0
0.057373405 0.012863517 0.10158896 0
0.045255542 0.014595747 0.10705125 0
0.043787122 0.012663841 0.10489249 0
0.042770505 0.01056695 0.10239768 0
0.02876389 0.013150215 0.10947669 0
0.031035542 0.0098925829 0.10459006 0
0.01888454 0.011930108 0.11046326 0
0.024850488 0.0072793961 0.10277224 0
0.014237046 0.0088357925 0.10760796 0
0.0168221 0.005412817 0.1024214 0
0.012233377 0.0047299862 0.1027267 0
0.011602879 0.002518177 0.099979281 0
0.004863143 0.0027189255 0.10201299 0
0.00044822693 0.002030015 0.10226464 0
0.0014989376 -0.00085639954 0.098187566 0
-0.0030943155 -0.0014520884 0.098608613 0
-0.012600541 1.9192696e-05 0.10304189 0
-0.011335969 -0.0029668808 0.098777175 0
-0.010969043 -0.0056025982 0.095209718 0
-0.013872743 -0.0068546534 0.094323039 0
-0.015190721 -0.0087878704 0.092122912 0
-0.024925709 -0.0070244074 0.097000957 0
-0.016174674 -0.013411283 0.086292267 0
-0.030184865 -0.009662509 0.094907165 0
-0.030605078 -0.011978149 0.091967702 0
-0.022496462 -0.018235683 0.081598163 0
-0.032355547 -0.016235948 0.086819887 0
-0.03841126 -0.015945554 0.088791966 0
-0.030855536 -0.022090316 0.07871604 0
-0.038999438 -0.020783544 0.082574844 0
-0.040655851 -0.022568583 0.080658793 0
0.14848053 0.020508289 0.086373687 0
0.13388908 0.022110581 0.092329621 0
0.12258232 0.022848248 0.096276879 0
0.11886096 0.021404982 0.095341086 0
0.1060679 0.02270782 0.10042787 0
0.099497199 0.022198081 0.10147786 0
0.097639203 0.020268679 0.09940815 0
0.086577296 0.021221042 0.10357571 0
0.078983426 0.021147132 0.10547221 0
0.083582282 0.017201662 0.09903419 0
0.078076005 0.016491055 0.099538207 0
0.074612737 0.015136361 0.098652124 0
0.064809203 0.015910387 0.10225284 0
0.062263131 0.014297366 0.10078323 0
0.055139184 0.014255881 0.10259926 0
0.045322776 0.01519084 0.10641658 0
0.040645242 0.014390945 0.10658467 0
0.038481593 0.012722254 0.10494077 0
0.031492352 0.012789249 0.10686541 0
0.02549684 0.012539148 0.10810816 0
0.026070476 0.0099061728 0.10446739 0
0.016181231 0.011149049 0.10871208 0
0.015440464 0.0090135336 0.10607576 0
0.012902856 0.007552743 0.10480583 0
0.016206145 0.0038422346 0.099019647 0
0.0099111795 0.0038328171 0.10066032 0
0.0045908689 0.0034778118 0.10158694 0
0.00078594685 0.0025476217 0.10135305 0
-0.002025485 0.0012326241 0.10034823 0
-0.0035293102 -0.00060987473 0.098300815 0
-0.010832191 -5.6505203e-05 0.10095227 0
-0.010278463 -0.0027424097 0.097246528 0
-0.017746329 -0.0020554066 0.1001184 0
-0.016916394 -0.0048701763 0.096169114 0
-0.023335934 -0.0045719147 0.098250508 0
-0.024338484 -0.0066037178 0.095820427 0
-0.021811128 -0.010210037 0.090376019 0
-0.02722156 -0.010304689 0.091671467 0
-0.030545235 -0.011311293 0.091210008 0
-0.033774495 -0.012348175 0.090683699 0
-0.031436443 -0.015953183 0.08529079 0
-0.034538388 -0.017054558 0.084645391 0
-0.033875704 -0.01992929 0.080660582 0
-0.03824532 -0.020421982 0.081155062 0
-0.041102409 -0.021623731 0.080312371 0
0.13501275 0.023110151 0.090562224 0
0.12588322 0.023203969 0.093084931 0
0.11716163 0.023233175 0.095414042 0
0.10797775 0.02345407 0.098121166 0
0.1063633 0.02143538 0.095841885 0
0.099433661 0.021048069 0.097142577 0
0.088703513 0.021883965 0.10107934 0
0.08714354 0.019897938 0.098829389 0
0.083508372 0.018571854 0.098008037 0
0.073406339 0.019352317 0.10170555 0
0.071176767 0.017619491 0.099970579 0
0.067050099 0.016518831 0.099580169 0
0.060868979 0.016126394 0.10067761 0
0.051019073 0.017017961 0.10445762 0
0.041445374 0.017880797 0.10812676 0
0.038128972 0.016626477 0.10731781 0
0.036978602 0.01461935 0.10493219 0
0.032158136 0.013916969 0.10525715 0
0.035148025 0.01041472 0.099782348 0
0.021844029 0.012833476 0.10651445 0
0.02148962 0.010555029 0.10355628 0
0.018816113 0.0091315508 0.10235202 0
0.014443755 0.0083590746 0.10246575 0
0.012117743 0.0068224669 0.10101879 0
0.0083421469 0.0058522224 0.10071075 0
0.00029218197 0.0065780878 0.10379648 0
-0.0045374632 0.0060794353 0.10439682 0
0.0018097162 0.0011115074 0.0960778 0
-0.0041673183 0.0010806322 0.097605586 0
-0.007909894 0.00016736984 0.09736526 0
-0.012468934 -0.00038957596 0.097816586 0
-0.018293142 -0.00038921833 0.09934628 0
-0.019134879 -0.0024746656 0.096774578 0
-0.028175473 -0.0010390282 0.10107088 0
-0.028744221 -0.0032260418 0.098291516 0
-0.024740815 -0.0074422359 0.091594338 0
-0.029358268 -0.007876277 0.092225432 0
-0.0387851 -0.0061172247 0.09705627 0
-0.037434936 -0.0091949701 0.092580318 0
-0.040047765 -0.010481 0.091544271 0
-0.038139462 -0.013868093 0.08650744 0
-0.036279559 -0.017273664 0.081458688 0
-0.044546485 -0.015895605 0.08547461 0
-0.048750162 -0.016409993 0.085889578 0
-0.053591013 -0.016591549 0.0869174 0
-0.045266509 -0.023226857 0.075846314 0
0.14413047 0.021050096 0.083922386 0
0.12854779 0.022982121 0.090621114 0
0.12189615 0.022390485 0.091572642 0
0.10918605 0.023643136 0.096601129 0
0.098226905 0.024451256 0.10057044 0
0.09216392 0.023831248 0.10132897 0
0.093454003 0.020962715 0.097125411 0
0.087134361 0.02045989 0.098109126 0
0.074274898 0.022074461 0.10366452 0
0.066032529 0.022289157 0.10612047 0
0.066948891 0.019564867 0.10220933 0
0.067417502 0.016965151 0.098583817 0
0.047555327 0.021152735 0.10944629 0
0.042987943 0.020304918 0.10950482 0
0.048270106 0.016098619 0.10244954 0
0.048380017 0.013628364 0.099092841 0
0.046133876 0.011969447 0.09744823 0
0.035502791 0.013298154 0.10203278 0
0.029047132 0.013197184 0.10359371 0
0.027019739 0.011519909 0.10186708 0
0.015467286 0.013359666 0.10738218 0
0.014022946 0.011507869 0.10526717 0
0.011837125 0.0099321604 0.10371888 0
0.012845039 0.0071365833 0.099687696 0
0.0079432726 0.0066013336 0.10025513 0
-0.0046572685 0.0091077089 0.10694396 0
0.0051077604 0.0028502941 0.095947146 0
-0.0016406775 0.0031033754 0.098062038 0
-0.017860055 0.0072410107 0.10789955 0
-0.0086106062 0.0010652542 0.097148299 0
-0.00855124 -0.0014035702 0.093806744 0
-0.0098129511 -0.0033376217 0.091532826 0
-0.011700988 -0.0050134659 0.089771509 0
-0.021150947 -0.0034438372 0.094370008 0
-0.025837421 -0.0038704872 0.095027208 0
-0.028082252 -0.005343318 0.093633175 0
-0.03154099 -0.0062748194 0.093287349 0
-0.031324506 -0.0088429451 0.089770794 0
-0.027267694 -0.01317811 0.082864046 0
-0.039378285 -0.010150075 0.090126634 0
-0.041513324 -0.011652112 0.088664412 0
-0.043751597 -0.013105154 0.087295294 0
-0.046141028 -0.014484406 0.086065292 0
-0.049279332 -0.015501142 0.085520387 0
-0.049032688 -0.018149734 0.081887364 0
-0.050810575 -0.019829869 0.080091357 0
0.13139379 0.023438215 0.087571621 0
0.12087369 0.023970485 0.091063619 0
0.11820185 0.022242785 0.089412451 0
0.11198676 0.021584868 0.090150714 0
0.096878648 0.023666382 0.096960187 0
0.09234345 0.022592902 0.096690297 0
0.08265698 0.023148656 0.099995017 0
0.089096069 0.018665791 0.092193961 0
0.077813268 0.019792557 0.096696496 0
0.054123521 0.02502048 0.11004949 0
0.05941689 0.020904303 0.1030494 0
0.047116399 0.022581816 0.10856998 0
0.048750281 0.019651771 0.10414827 0
0.038759708 0.020656228 0.1081444 0
0.04141891 0.017361164 0.1029557 0
0.043584943 0.014199495 0.098078609 0
0.02617228 0.017929196 0.10773933 0
0.030600071 0.013970971 0.10118222 0
0.025328517 0.013472795 0.10188997 0
0.015596151 0.014639854 0.10603952 0
0.013973594 0.012864709 0.10404778 0
0.0091696978 0.012281895 0.1045171 0
0.0035773516 0.012023926 0.10563648 0
0.0035783052 0.0096474886 0.10239851 0
-0.0053188801 0.010715842 0.10619414 0
0.001543045 0.0056431293 0.097478271 0
-0.0064326525 0.0063990355 0.10060561 0
-0.0078556538 0.0045698881 0.098487973 0
-0.013382435 0.0044083595 0.099721313 0
-0.01018393 0.00068235397 0.093803763 0
-0.016414762 0.00083959103 0.095656753 0
-0.015922189 -0.0017991066 0.091932058 0
-0.023486733 -0.0010246038 0.094977021 0
-0.02912128 -0.0010288954 0.096452832 0
-0.026160479 -0.0047492981 0.090605497 0
-0.027808189 -0.0064847469 0.088674426 0
-0.039840817 -0.0035891533 0.095784068 0
-0.033882737 -0.0087137222 0.087235332 0
-0.039034724 -0.0088483095 0.088406801 0
-0.03815949 -0.011733174 0.084246278 0
-0.038287044 -0.014180541 0.080945492 0
-0.045249939 -0.013422728 0.083809257 0
-0.050067544 -0.013637662 0.084783435 0
-0.046510577 -0.01786387 0.078089952 0
-0.051500559 -0.017981529 0.07924211 0
-0.051232696 -0.020661354 0.075520515 0
-0.046415806 -0.025635004 0.067477465 0
0.13437212 0.023338914 0.08536303 0
0.12138963 0.024576545 0.090466976 0
0.11313045 0.024503112 0.092536092 0
0.11418188 0.021689177 0.088410258 0
0.093340993 0.02549684 0.099094629 0
0.086266875 0.025220394 0.10057485 0
0.083291531 0.023708224 0.099287629 0
0.074355483 0.024084926 0.10215056 0
0.073384166 0.021972895 0.099516392 0
0.059952378 0.023885489 0.10566175 0
0.072883487 0.017252445 0.093189955 0
0.055440187 0.020576358 0.10231996 0
0.054759145 0.018396616 0.099516749 0
0.047438145 0.018464804 0.10153341 0
0.033669829 0.020798683 0.10834324 0
0.035120368 0.017926812 0.10403335 0
0.032322049 0.016525507 0.10285139 0
0.026279807 0.016290188 0.10411704 0
0.020003796 0.016174674 0.10560763 0
0.015426397 0.015475512 0.10585344 0
0.016627431 0.012659669 0.10168576 0
0.021497488 0.008441329 0.094635367 0
0.0086086988 0.010894895 0.10137808 0
-0.0037587881 0.013246298 0.107844 0
0.0024151802 0.008494854 0.099721789 0
-0.0056809187 0.0092732906 0.1029135 0
-0.0050173998 0.0066275597 0.099119782 0
-0.010606289 0.0064703226 0.10037291 0
-0.0078669786 0.0029606819 0.094851851 0
-0.011998415 0.0022321939 0.094940543 0
-0.018134713 0.0023578405 0.09672451 0
-0.022319794 0.0017015934 0.096926093 0
-0.019058347 -0.0021028519 0.090864539 0
-0.026759744 -0.0012396574 0.094068646 0
-0.025827408 -0.0040798187 0.089938283 0
-0.027104139 -0.0059764385 0.087679029 0
-0.031956673 -0.0062890053 0.08852613 0
-0.038228273 -0.0059345961 0.090658665 0
-0.039277792 -0.0079153776 0.08822453 0
-0.042669415 -0.0088279247 0.087867141 0
-0.044986486 -0.010227323 0.086561203 0
-0.050560594 -0.010091066 0.088212132 0
-0.048509359 -0.013547421 0.082944512 0
-0.055317521 -0.012784243 0.085777283 0
-0.053813577 -0.016014814 0.080962539 0
-0.054238081 -0.0183357 0.077898979 0
-0.055028319 -0.020492792 0.075155616 0
0.1227566 0.025450468 0.088122964 0
0.11562526 0.025039911 0.089432359 0
0.10896218 0.024530292 0.090480924 0
0.096139312 0.025913358 0.095772386 0
0.088044047 0.02593863 0.097938776 0
0.089394212 0.023091555 0.093640804 0
0.082616568 0.022763968 0.094971657 0
0.076703429 0.022200823 0.095748782 0
0.069237947 0.022168159 0.097669244 0
0.060047746 0.022741556 0.10088301 0
0.053435445 0.022524595 0.10232365 0
0.045475602 0.022795916 0.10479498 0
0.041388631 0.021808863 0.10450423 0
0.041148543 0.019524336 0.10140407 0
0.027866483 0.021740198 0.1079694 0
0.029351592 0.018877506 0.10361445 0
0.029035091 0.016624928 0.10057855 0
0.02649796 0.015155196 0.099211454 0
0.017937779 0.015878558 0.10246694 0
0.01218617 0.015626788 0.10363257 0
0.013292432 0.01285696 0.099505782 0
-8.6903572e-05 0.015513182 0.10670674 0
-0.0010256767 0.013532162 0.10421073 0
0.0023754835 0.0098693371 0.098243237 0
-0.0056763887 0.010624051 0.10140836 0
-0.0050047636 0.0079926252 0.097587585 0
-0.0083874464 0.0069547892 0.097041249 0
-0.0080912113 0.0044444799 0.093487144 0
-0.01960063 0.006734252 0.099688172 0
-0.014094234 0.0020837784 0.091798902 0
-0.021179557 0.0026236773 0.09441185 0
-0.030874014 0.0043145418 0.099305749 0
-0.032051325 0.0024387836 0.097018361 0
-0.0302881 -0.00071644783 0.092184901 0
-0.031582952 -0.0025714636 0.089957118 0
-0.039092422 -0.0016862154 0.093160152 0
-0.043554425 -0.00210917 0.093749404 0
-0.043727517 -0.0044471025 0.090557456 0
-0.04539001 -0.0061228275 0.088674784 0
-0.044496059 -0.0089846849 0.08447659 0
-0.050782084 -0.0085202456 0.086774707 0
-0.050492764 -0.011120558 0.083097935 0
-0.055627942 -0.011152983 0.084405065 0
-0.055030227 -0.013923526 0.080411077 0
-0.056202531 -0.015858173 0.078040838 0
-0.055684328 -0.018637896 0.074055195 0
-0.054738522 -0.021660089 0.069621205 0
-0.055070043 -0.024071217 0.066369772 0
0.13242531 0.023343325 0.081468225 0
0.11493814 0.025923967 0.08965838 0
0.10609329 0.026063561 0.092178822 0
0.10254622 0.024665952 0.091166735 0
0.09366703 0.024902582 0.093831301 0
0.081145406 0.026316166 0.099091411 0
0.078410745 0.024758935 0.097643614 0
0.06958878 0.025132298 0.1004833 0
0.065276384 0.024117351 0.10020483 0
0.063710809 0.022231102 0.097991586 0
0.053602099 0.023146033 0.10192335 0
0.04286778 0.02433598 0.10640252 0
0.042426944 0.022134542 0.10345471 0
0.031947494 0.023340702 0.10788929 0
0.029689431 0.021783233 0.10631573 0
0.031714559 0.018733025 0.10153842 0
0.022523284 0.019612908 0.10517991 0
0.026672482 0.015783072 0.098759174 0
0.026496291 0.013466597 0.09558177 0
0.015386224 0.01513958 0.10083175 0
0.014173508 0.013223648 0.098484397 0
0.014437795 0.010746717 0.094967961 0
0.0050348043 0.011919022 0.099072337 0
-0.00063896179 0.011725664 0.10029531 0
0.0006622076 0.0088553429 0.09595871 0
-0.0035135746 0.0081082582 0.096017241 0
-0.0083528757 0.0076447725 0.096644878 0
-0.012968659 0.0071176291 0.097125173 0
-0.014351964 0.0052992105 0.094958305 0
-0.018056035 0.0044304132 0.094723344 0
-0.021259427 0.0033689737 0.094088674 0
-0.028739214 0.0041196346 0.097100496 0
-0.025404096 0.00031650066 0.09093082 0
-0.033125043 0.001224041 0.094224334 0
-0.032709122 -0.0013576746 0.09052217 0
-0.037922025 -0.0014836788 0.091717601 0
-0.03904283 -0.0034015179 0.089343667 0
-0.039684772 -0.0055443048 0.086530328 0
-0.045758247 -0.0052267313 0.088569641 0
-0.046723962 -0.0072216988 0.086047292 0
-0.048234344 -0.0089740753 0.084005952 0
-0.051805735 -0.0097615719 0.083849072 0
-0.046384931 -0.014816284 0.075389266 0
-0.051843524 -0.01471138 0.076970696 0
-0.057144523 -0.014648199 0.078452826 0
-0.060220361 -0.015645862 0.077873349 0
-0.062924027 -0.016818643 0.076952338 0
-0.053960323 -0.023854733 0.064803123 0
0.11436093 0.027222395 0.088808894 0
0.11099899 0.025749326 0.087619066 0
0.095849872 0.027800798 0.0944947 0
0.097064018 0.025012851 0.090248823 0
0.087578535 0.025473595 0.093393683 0
0.082650304 0.024581075 0.093433738 0
0.06147325 0.028812528 0.10496569 0
0.0697124 0.023846507 0.095803618 0
0.060161948 0.024525404 0.099273086 0
0.058454394 0.022709131 0.097164392 0
0.049172044 0.023391128 0.10056746 0
0.041570783 0.023571253 0.10282147 0
0.050337434 0.018260717 0.09303546 0
0.040245414 0.019319773 0.097182631 0
0.033621907 0.019244075 0.098819017 0
0.024309993 0.020151377 0.10254705 0
0.026250958 0.017124295 0.097773194 0
0.015572309 0.018600106 0.10266173 0
0.017143846 0.015694618 0.098156333 0
0.0050567389 0.017786622 0.10428321 0
0.01041019 0.013470292 0.096795678 0
0.0033123493 0.01378274 0.099103332 0
-0.0058403015 0.014924288 0.10311949 0
-0.0021182299 0.011162162 0.096841812 0
-0.00082457066 0.0082967281 0.092465878 0
-0.013170362 0.010787845 0.099223018 0
-0.010194182 0.0072524548 0.093460679 0
-0.014909744 0.0067795515 0.094035625 0
-0.012515664 0.0034253597 0.088681817 0
-0.024213672 0.0058568716 0.095184445 0
-0.026682377 0.0045195818 0.093950629 0
-0.029968619 0.0035326481 0.093425393 0
-0.027168155 -4.6372414e-05 0.087648034 0
-0.034464955 0.0006967783 0.090614915 0
-0.037411809 -0.00041246414 0.089828134 0
-0.041278839 -0.0011054277 0.089869857 0
-0.048084617 -0.00046539307 0.092562079 0
-0.044406176 -0.0045216084 0.085881591 0
-0.046613455 -0.0059428215 0.084460855 0
-0.044802904 -0.0092215538 0.079366803 0
-0.052070022 -0.0082937479 0.082585931 0
-0.056448102 -0.0086789131 0.083195448 0
-0.057732463 -0.010519624 0.080941081 0
-0.060539007 -0.011632919 0.080111623 0
-0.060261607 -0.014246464 0.076357961 0
-0.054645896 -0.019524455 0.067446947 0
-0.065996289 -0.016408443 0.074822307 0
0.11103642 0.027240992 0.086777329 0
0.096948266 0.028965116 0.092933059 0
0.094070315 0.027417421 0.091488719 0
0.085914493 0.027481914 0.093724847 0
0.085456014 0.025223494 0.090633869 0
0.073719382 0.02647233 0.095495343 0
0.066699147 0.026308298 0.097107768 0
0.054263711 0.027917743 0.10266578 0
0.056023836 0.025011539 0.098070264 0
0.050560594 0.024445415 0.098701596 0
0.046838403 0.023329377 0.098093152 0
0.039716125 0.023371339 0.10002542 0
0.035266995 0.022546053 0.1000216 0
0.024358749 0.023967505 0.10491073 0
0.028579831 0.020186663 0.098424315 0
0.022091746 0.020134449 0.10005593 0
0.026311278 0.016294718 0.093486309 0
0.019442558 0.016411543 0.095458269 0
0.011214137 0.017068267 0.098555565 0
0.0046674013 0.017156482 0.10040212 0
0.0053306818 0.014582992 0.096568227 0
0.0031491518 0.013064981 0.094982982 0
-0.010774016 0.016052485 0.1028918 0
-0.0053784847 0.011649847 0.095212579 0
-0.0061846972 0.0096153021 0.092531323 0
-0.014790416 0.010667682 0.096290469 0
-0.019139409 0.010070324 0.09658432 0
-0.020442963 0.0082571507 0.094348669 0
-0.024438024 0.0075436831 0.094384313 0
-0.033405662 0.008916378 0.098693967 0
-0.034510374 0.0070484877 0.096328378 0
-0.033042073 0.0040775537 0.091717601 0
-0.039103627 0.0043121576 0.093644738 0
-0.031208992 -0.0014853477 0.08332479 0
-0.043072104 0.0013116598 0.0904212 0
-0.043023944 -0.0010935068 0.086988211 0
-0.046080947 -0.0021226406 0.086328387 0
-0.054591894 -0.0006608963 0.090644717 0
-0.050346375 -0.0050014257 0.083356261 0
-0.0509305 -0.0071601868 0.080439925 0
-0.059256196 -0.0056939125 0.084713936 0
-0.05556035 -0.0098786354 0.077791333 0
-0.059609294 -0.01040113 0.078112841 0
-0.056591392 -0.014337897 0.071721077 0
-0.066429973 -0.012012005 0.07761538 0
-0.053385854 -0.020971537 0.061445117 0
-0.059258699 -0.020595074 0.063524365 0
0.10730016 0.027225733 0.084975839 0
0.094418645 0.02863133 0.090378404 0
0.0861305 0.028733253 0.092701554 0
0.082864881 0.027347088 0.091567039 0
0.06992197 0.028971195 0.097299814 0
0.061794877 0.029169798 0.099719524 0
0.055593014 0.028805614 0.10082471 0
0.048794389 0.02866745 0.10241151 0
0.050132871 0.025915861 0.098106027 0
0.045351744 0.025157332 0.098271489 0
0.032500863 0.027118444 0.10446441 0
0.029584169 0.025808811 0.10334849 0
0.028197646 0.023983359 0.10108924 0
0.027844191 0.021795154 0.098037481 0
0.023648143 0.020941377 0.097912431 0
0.019803286 0.019981861 0.097543359 0
0.010865211 0.020868182 0.10116422 0
0.011689544 0.018264771 0.097206593 0
0.007848382 0.017353654 0.096905947 0
-0.0021629333 0.018756032 0.10155022 0
0.0033608675 0.014376879 0.093806624 0
-0.0040433407 0.014858484 0.096443176 0
-0.0019601583 0.011730075 0.091400504 0
-0.010926127 0.012875199 0.095400453 0
-0.010428071 0.010348439 0.091638684 0
-0.01847136 0.011208534 0.094987035 0
-0.022083163 0.01033473 0.094679713 0
-0.025009751 0.0091955662 0.093811274 0
-0.027660012 0.0079510212 0.09271872 0
-0.027436852 0.0055117607 0.08915484 0
-0.036633372 0.0070319176 0.093754292 0
-0.040260196 0.0062402487 0.09356916 0
-0.039751291 0.0036761761 0.089750886 0
-0.042822361 0.0026525259 0.089086413 0
-0.044093132 0.00084292889 0.086819649 0
-0.04805243 0.00022757053 0.086975098 0
-0.044669986 -0.003687501 0.080460668 0
-0.048066378 -0.0045591593 0.08009994 0
-0.051091433 -0.005589366 0.07941401 0
-0.06000948 -0.0038564205 0.084246278 0
-0.059905529 -0.0063152313 0.080685496 0
-0.056110382 -0.010560393 0.073588371 0
-0.06033814 -0.010992885 0.074077129 0
-0.060587406 -0.013345957 0.070761085 0
-0.064276218 -0.014021158 0.070759654 0
-0.061481357 -0.017915845 0.064428806 0
0.095234752 0.029946208 0.088549733 0
0.089095831 0.029398918 0.089370012 0
0.07802999 0.030382752 0.093710065 0
0.078340888 0.027931809 0.090069294 0
0.060202718 0.031220675 0.099617124 0
0.059972048 0.028977633 0.096420884 0
0.046476007 0.030966401 0.1028595 0
0.039371848 0.030976534 0.10474336 0
0.042605519 0.02763629 0.099042296 0
0.034915328 0.027882814 0.10142338 0
0.040480018 0.023719072 0.093913317 0
0.03368485 0.023700356 0.095674157 0
0.024586797 0.02451539 0.099251151 0
0.020028949 0.023806334 0.099420786 0
0.013162732 0.023934126 0.10141289 0
0.014583707 0.021143198 0.096986413 0
0.0082253218 0.021135569 0.09864819 0
0.012350798 0.017330527 0.092037678 0
-0.00028002262 0.019674659 0.098764539 0
-0.002466321 0.018200278 0.097198844 0
-0.0022150278 0.015803814 0.093653083 0
-0.0052014589 0.014628887 0.092732668 0
-0.0082365274 0.013481498 0.091865063 0
-0.01271975 0.012911558 0.092217088 0
-0.021398425 0.014029145 0.096123219 0
-0.017241836 0.010054827 0.089258552 0
-0.025897622 0.011226416 0.093237281 0
-0.028643847 0.010032415 0.092226028 0
-0.035007834 0.01034832 0.09435904 0
-0.040840983 0.010482073 0.096087933 0
-0.036594629 0.0063691139 0.088998437 0
-0.042862773 0.0067145824 0.09114933 0
-0.046663642 0.0060286522 0.091153383 0
-0.050363541 0.0053156614 0.091091514 0
-0.048271537 0.0020450354 0.085791826 0
-0.050511241 0.00067985058 0.084398866 0
-0.051800966 -0.0011152029 0.082131505 0
-0.057771206 -0.00076758862 0.084207177 0
-0.055688381 -0.0041220188 0.0787884 0
-0.064893007 -0.0022164583 0.083976984 0
-0.054739356 -0.0094323158 0.070827723 0
-0.05848062 -0.010103464 0.070837379 0
-0.06270659 -0.010522604 0.07134068 0
-0.062270999 -0.013207793 0.067327023 0
-0.059667349 -0.016997099 0.061139584 0
-0.059291482 -0.019720435 0.05708611 0
0.10236704 0.028387308 0.083105326 0
0.089236379 0.029903889 0.088775754 0
0.083220601 0.029351473 0.089550853 0
0.073439002 0.029985666 0.093050957 0
0.071360588 0.028287888 0.09111619 0
0.052251816 0.031948686 0.10149324 0
0.048458934 0.030866146 0.10090888 0
0.045339465 0.029581308 0.099851489 0
0.041103482 0.02867043 0.099634409 0
0.032964945 0.029068351 0.10235703 0
0.030724406 0.02754271 0.10071647 0
0.032827735 0.024547577 0.095785618 0
0.026472211 0.024420142 0.097271085 0
0.017788291 0.025137186 0.10060346 0
0.016102433 0.023452163 0.098584056 0
0.013511896 0.022086382 0.097269177 0
0.0085303783 0.02158618 0.097848535 0
0.0023494959 0.02154839 0.099419236 0
0.00028049946 0.020032048 0.097747207 0
-0.0058892965 0.02004528 0.099389434 0
-0.001529336 0.016123533 0.0925107 0
-0.0068638325 0.015845418 0.093507409 0
-0.009860158 0.014693975 0.092612624 0
-0.015397787 0.014544129 0.093850374 0
-0.022505879 0.015046597 0.096454501 0
-0.023228407 0.013043642 0.093717098 0
-0.023126245 0.010695338 0.090258121 0
-0.034139752 0.012872696 0.096337438 0
-0.03870213 0.012466073 0.096943259 0
-0.041200042 0.011219859 0.095779061 0
-0.037844062 0.0075023174 0.089462638 0
-0.045615911 0.0084937811 0.092956185 0
-0.038679838 0.0031772852 0.083361268 0
-0.046008348 0.004014492 0.086512685 0
-0.050337911 0.0035766363 0.087011456 0
-0.051610231 0.0017933846 0.084739685 0
-0.058272362 0.002440691 0.087438345 0
-0.062420964 0.0019843578 0.087862611 0
-0.0622859 -0.00043213367 0.084295273 0
-0.059188008 -0.0042567253 0.077890396 0
-0.061219215 -0.0057097673 0.076300979 0
-0.066342235 -0.0056852102 0.077684522 0
-0.059912324 -0.01121366 0.067912817 0
-0.061581016 -0.01287508 0.065923452 0
-0.060354352 -0.015972614 0.061073422 0
-0.056663036 -0.020338297 0.053721666 0
0.096035123 0.030893207 0.08699286 0
0.088821769 0.030664921 0.08855474 0
0.083694339 0.029847503 0.088701844 0
0.078724027 0.0290066 0.088772893 0
0.073586583 0.028240442 0.08899796 0
0.061559081 0.029658318 0.094246507 0
0.052235842 0.03029716 0.097638488 0
0.04196012 0.031300783 0.10181725 0
0.041911244 0.029044032 0.098512053 0
0.034162164 0.029308081 0.1009388 0
0.038170695 0.025699258 0.094578147 0
0.026685834 0.027270555 0.099909782 0
0.02756083 0.0246979 0.095897079 0
0.018517852 0.025530934 0.099500775 0
0.013638258 0.02496624 0.099954128 0
0.0069872141 0.025053382 0.10183179 0
0.013354421 0.020514369 0.09348321 0
0.0035278797 0.021777511 0.097925305 0
-0.0010619164 0.021186113 0.098263383 0
0.0015844107 0.017930388 0.092780471 0
-0.0050742626 0.018130302 0.094825864 0
-0.0066472292 0.016438007 0.092751622 0
-0.015520573 0.017549396 0.096719861 0
-0.018362641 0.016375899 0.095742106 0
-0.020467877 0.014919758 0.094155073 0
-0.02099061 0.012834907 0.091227174 0
-0.026899338 0.012905121 0.092884779 0
-0.031813979 0.012606382 0.093738437 0
-0.030196071 0.0096434355 0.088956356 0
-0.039644003 0.011257052 0.093814492 0
-0.036073089 0.0074547529 0.087284565 0
-0.036900878 0.0054736137 0.084589362 0
-0.051159382 0.0092694759 0.093921304 0
-0.046197295 0.0048061609 0.08605361 0
-0.050251365 0.0042483807 0.086300015 0
-0.053544164 0.0033710003 0.085876346 0
-0.050890565 -0.00017392635 0.079966187 0
-0.054960012 -0.00070273876 0.080259204 0
-0.058450699 -0.0014781952 0.080037475 0
-0.057078719 -0.0045047998 0.075226426 0
-0.061297774 -0.0049334764 0.075706124 0
-0.058397174 -0.0087313652 0.069359064 0
-0.064072847 -0.008452177 0.071262479 0
-0.062456012 -0.011685967 0.066082716 0
-0.065097094 -0.01286447 0.065044761 0
-0.054568172 -0.020591617 0.050914049 0
0.090896845 0.030754566 0.086398005 0
0.083362222 0.030653834 0.088235855 0
0.076264977 0.030463099 0.089825034 0
0.06708324 0.030953646 0.092972279 0
0.065792084 0.029039979 0.090480924 0
0.054370403 0.030320048 0.095387101 0
0.038474441 0.033105731 0.103701 0
0.044500709 0.028905034 0.095895886 0
0.037834883 0.028800607 0.097499132 0
0.030625343 0.028914809 0.099569201 0
0.025980115 0.028210163 0.099751592 0
0.021182895 0.027579546 0.10008335 0
0.025416851 0.023864031 0.093468785 0
0.014688849 0.025308728 0.09843564 0
0.012130618 0.023946524 0.097094655 0
0.0063488483 0.023739576 0.098312974 0
0.0051674843 0.021903992 0.095908284 0
0.0040169954 0.020050406 0.093468785 0
-0.00070083141 0.019508243 0.093910575 0
-0.0017806292 0.017629147 0.09141469 0
-0.0061888695 0.01700139 0.09164834 0
-0.0098335743 0.016102552 0.091279268 0
-0.0095175505 0.013684511 0.087617755 0
-0.014191747 0.013200283 0.088133931 0
-0.021715522 0.013869405 0.091108084 0
-0.020864844 0.011231542 0.086980343 0
-0.028048992 0.011825085 0.089753151 0
-0.034360528 0.012108564 0.091837049 0
-0.033452511 0.0094374418 0.087644815 0
-0.039756179 0.0097640753 0.089790463 0
-0.044735074 0.0095691681 0.090815067 0
-0.046307445 0.0079408884 0.088820219 0
-0.044788361 0.0049666166 0.08401835 0
-0.047959447 0.0040156841 0.083447337 0
-0.047667503 0.0015388727 0.079705358 0
-0.051016927 0.00067257881 0.079306602 0
-0.059640765 0.0022115707 0.083858252 0
-0.060985923 0.00047755241 0.081647038 0
-0.06129384 -0.0017448664 0.078439474 0
-0.054689765 -0.0072276592 0.0685848 0
-0.067768931 -0.0034668446 0.07759881 0
-0.064509988 -0.0074249506 0.07088244 0
-0.062234521 -0.010962963 0.065046906 0
-0.063114285 -0.013002038 0.062261462 0
-0.054977179 -0.019522905 0.050466537 0
0.092110038 0.030948043 0.085079551 0
0.082272053 0.031533003 0.088539958 0
0.081284165 0.029494882 0.085768342 0
0.064695477 0.032239914 0.094219327 0
0.068643212 0.028711915 0.087931871 0
0.052389145 0.031499505 0.09635818 0
0.042401075 0.0324018 0.10033035 0
0.045256972 0.029221058 0.094846845 0
0.030271888 0.031833529 0.10267866 0
0.042425513 0.025570631 0.090162158 0
0.02965796 0.027541161 0.096454978 0
0.0190382 0.028871775 0.1012305 0
0.02116394 0.025899172 0.096248984 0
0.01384151 0.026174784 0.098586917 0
0.0094927549 0.025449634 0.098653197 0
0.007658124 0.023850203 0.096757174 0
0.0060373545 0.02217257 0.094688296 0
0.00013589859 0.022051215 0.096061587 0
-0.0053690672 0.021817565 0.097163558 0
0.00036203861 0.017423987 0.089118719 0
-0.0080419779 0.01829648 0.092629313 0
-0.014976263 0.018664002 0.095001936 0
-0.013421178 0.015797138 0.090327859 0
-0.023246169 0.017343998 0.095215797 0
-0.020547271 0.014012218 0.089549065 0
-0.027436972 0.014470577 0.092044711 0
-0.02799201 0.012412071 0.089128971 0
-0.036988616 0.013792515 0.093551159 0
-0.039513469 0.012560964 0.092383981 0
-0.043504834 0.011947751 0.09252274 0
-0.043907642 0.0098348856 0.089485765 0
-0.047912002 0.0092476606 0.089666486 0
-0.048541427 0.0072188377 0.086814404 0
-0.045604587 0.0036160946 0.08068192 0
-0.051034451 0.0036661625 0.082185984 0
-0.046941876 -0.00051093102 0.074894786 0
-0.057943702 0.0020788908 0.081644058 0
-0.061511517 0.0013576746 0.081510544 0
-0.054371238 -0.0043013096 0.07121253 0
-0.062653899 -0.0028421879 0.075563788 0
-0.064137816 -0.0045342445 0.073437572 0
-0.06459415 -0.0067242384 0.070299983 0
-0.061484337 -0.010655522 0.063633323 0
-0.056443214 -0.015586853 0.054970384 0
-0.060227275 -0.016235352 0.055001855 0
0.085727096 0.031243801 0.085441232 0
0.074561954 0.032273173 0.089927077 0
0.063574433 0.033318877 0.094390512 0
0.06297195 0.031218529 0.09140563 0
0.059724331 0.02993691 0.090344071 0
0.053604007 0.029577494 0.091420531 0
0.037403464 0.032491922 0.10005593 0
0.039260268 0.029641867 0.095300436 0
0.033037901 0.029423714 0.096615314 0
0.035230994 0.026432633 0.091559887 0
0.020324111 0.029181957 0.099606872 0
0.021858335 0.026417732 0.095064998 0
0.020171642 0.024739146 0.092997551 0
0.0098655224 0.026075602 0.097716331 0
0.0079270601 0.024517417 0.09589541 0
0.0016673803 0.024507999 0.097532392 0
-0.0024491549 0.023757577 0.097495198 0
-0.0042250156 0.022166491 0.095582008 0
-0.0031088591 0.019499302 0.0912956 0
-0.005621314 0.018168688 0.089966655 0
-0.0096796751 0.017430067 0.089931846 0
-0.017503619 0.018158078 0.09308517 0
-0.018505335 0.016283393 0.090543389 0
-0.02316916 0.015841007 0.091111422 0
-0.024839759 0.014230847 0.089142203 0
-0.028060436 0.013241768 0.088511229 0
-0.031565666 0.012379646 0.088145494 0
-0.03184998 0.010204077 0.084964395 0
-0.037382364 0.010198951 0.086415887 0
-0.043422341 0.010440469 0.088370681 0
-0.040817142 0.0070358515 0.0825876 0
-0.041844845 0.0051522255 0.080039263 0
-0.056200027 0.0090669394 0.089685082 0
-0.050107121 0.0040897131 0.080628395 0
-0.059148908 0.0057772398 0.085539222 0
-0.058060408 0.0029689074 0.081048727 0
-0.059311986 0.0011950731 0.078723788 0
-0.062672496 0.00038456917 0.078397393 0
-0.064657927 -0.0010536909 0.076768279 0
-0.063358665 -0.0040402412 0.071955442 0
-0.059791565 -0.0081424713 0.064874649 0
-0.066755891 -0.0072336197 0.068071961 0
-0.064616799 -0.010705829 0.062310696 0
-0.059539199 -0.015670061 0.053541183 0
0.092052221 0.030033946 0.080634594 0
0.081905365 0.030730128 0.084353089 0
0.064103007 0.033823609 0.093692183 0
0.061220527 0.032431245 0.092357516 0
0.060617566 0.030332804 0.089360833 0
0.049564481 0.03153348 0.094076514 0
0.040535092 0.032156706 0.097391248 0
0.03589499 0.031411171 0.097492099 0
0.024894118 0.032777905 0.10244358 0
0.024007201 0.030852437 0.099781871 0
0.027245402 0.02752924 0.093932271 0
0.017337203 0.0286448 0.098218441 0
0.015364766 0.027087927 0.096396804 0
0.011733651 0.026110172 0.095882535 0
0.0075103045 0.025355577 0.095860004 0
-7.5340271e-05 0.025822163 0.098559022 0
0.0056056976 0.021536112 0.090618253 0
0.002343297 0.020458817 0.08985734 0
-0.011259675 0.023222923 0.097595334 0
