# .PCD v0.7 - Point Cloud Data file format
VERSION 0.7
FIELDS x y z normal_x normal_y normal_z curvature
SIZE 4 4 4 4 4 4 4
TYPE F F F F F F F
COUNT 1 1 1 1 1 1 1
WIDTH 577
HEIGHT 1
VIEWPOINT 0 0 0 1 0 0 0
POINTS 577
DATA ascii
-0.001366887 -0.0053877453 0.099833488 -0.26152578 -0.16453761 0.95583391 0.046016071
-0.00080691883 -0.0090730935 0.099444054 -0.26076177 -0.27275267 0.9400782 0.048076872
-0.00157461 -0.012104722 0.09835799 -0.26619455 -0.37127176 0.91436857 0.046609662
-0.0090639358 -0.0098257121 0.096894369 -0.26090479 -0.31634322 0.93407452 0.048507143
-0.010691365 -0.011918925 0.095661685 -0.26186007 -0.39523825 0.91179401 0.047301304
-0.015176206 -0.011800697 0.094298117 -0.26465061 -0.40537599 0.90723222 0.04740062
-0.017262295 -0.013494321 0.093038321 -0.26025188 -0.46825567 0.88688272 0.043111853
-0.017419316 -0.01658394 0.091115825 -0.25388896 -0.583646 0.83347952 0.040815022
-0.023259174 -0.015155477 0.090331025 -0.26283988 -0.52662128 0.85167956 0.037725966
-0.023650711 -0.018036064 0.088349782 -0.2542609 -0.63161409 0.80528456 0.03502094
-0.029204894 -0.016609196 0.08771009 -0.27607563 -0.56238884 0.8295297 0.037897408
-0.025232319 -0.022491036 0.083304681 -0.24182606 -0.81257623 0.67771059 0.035230264
0.14574564 0.020346161 0.092082135 0.24479918 1.1515709 0.39799002 0.066810854
0.14001672 0.020516163 0.09406849 0.19203861 1.1150395 0.48623204 0.059185199
0.12719205 0.020299656 0.096643366 0.099064864 0.92192936 0.60706031 0.046861436
0.12679453 0.019946698 0.097205795 0.09652961 0.9105559 0.63810456 0.05085054
0.12304848 0.019360721 0.098177709 0.087260924 0.85218471 0.68794984 0.051004346
0.11439785 0.018818993 0.099249765 0.078048222 0.73146391 0.74327558 0.045681123
0.10144989 0.018301552 0.10093065 0.076497868 0.60933691 0.79936963 0.034704253
0.10780844 0.017588262 0.10103636 0.076675601 0.62404317 0.80726945 0.046054196
0.090416297 0.017117668 0.1024651 0.057556521 0.52861589 0.84782028 0.035043888
0.088548526 0.016561102 0.10303546 0.06108157 0.5004425 0.86533588 0.041971877
0.081961386 0.015786741 0.10356011 0.059617922 0.45521522 0.88869566 0.039601866
0.077045873 0.015083262 0.10419878 0.05608438 0.41918284 0.9062078 0.041723061
0.06700293 0.014565438 0.1047957 0.067091316 0.38309857 0.92129838 0.036870174
0.061636079 0.013943153 0.10531715 0.059801619 0.34909004 0.93523425 0.036561575
0.052604631 0.013718928 0.10589568 0.027338225 0.32144991 0.9465428 0.035168469
0.048937108 0.012891853 0.1061595 0.0057445052 0.29570478 0.95527875 0.034873452
0.051733237 0.011234499 0.10691879 0.021338811 0.25245634 0.96754241 0.039278898
0.039838962 0.011416074 0.10634264 -0.054559693 0.24222645 0.96869963 0.034082815
0.038861517 0.010000304 0.10667376 -0.060018264 0.20729788 0.9764781 0.035488576
0.031750482 0.0096080219 0.10589124 -0.10677946 0.1996496 0.97404355 0.036217205
0.027408987 0.0087492038 0.10545256 -0.14037004 0.18040651 0.97358578 0.034224182
0.028407589 0.0066220686 0.10623702 -0.13206024 0.13345411 0.98233551 0.036144882
0.022171404 0.0062443344 0.10508391 -0.16835926 0.12811169 0.97739953 0.037840057
0.012099418 0.0067893094 0.10258301 -0.22164629 0.15740179 0.96249419 0.03778246
0.016127782 0.0037471955 0.10440568 -0.20311393 0.07527557 0.97643721 0.039818525
0.013038081 0.0024903072 0.10380963 -0.22501813 0.047888067 0.97341311 0.040256083
0.011753461 0.00040547037 0.10380324 -0.22921138 0.00057586865 0.97460788 0.042650655
0.0067061693 4.7244197e-05 0.10238381 -0.2468815 -0.0093676327 0.96967876 0.042606678
0.0017722691 -0.00023711103 0.10091048 -0.26003236 -0.021590646 0.96679223 0.041894
-0.0045511094 5.3234085e-05 0.098966733 -0.25925654 -0.0011121677 0.96744323 0.042147681
-0.0022111286 -0.0037749384 0.099760458 -0.26105177 -0.1151432 0.96274233 0.046410713
-0.00052161998 -0.008277203 0.099767543 -0.26641849 -0.24590971 0.94316977 0.048207901
-0.0080443006 -0.0063142688 0.097942427 -0.26164779 -0.1985967 0.95468867 0.047613721
-0.014283359 -0.0053345244 0.09618739 -0.26255971 -0.17810555 0.95589697 0.048286784
-0.016568709 -0.0068355068 0.095410243 -0.26266548 -0.2343715 0.94666225 0.048712384
-0.019449916 -0.0078130728 0.094341658 -0.26129785 -0.27334678 0.93603808 0.045602553
-0.020029774 -0.010647709 0.093451649 -0.26736513 -0.36656022 0.91523308 0.045563351
-0.020740537 -0.013396895 0.092177562 -0.26745787 -0.46927738 0.8878687 0.043136042
-0.028771298 -0.01012038 0.091010258 -0.29527754 -0.33700532 0.90759784 0.041982025
-0.024777249 -0.016734121 0.089119621 -0.26264942 -0.5838539 0.83309382 0.037272304
-0.025015846 -0.019650918 0.086597636 -0.25104335 -0.68273216 0.76443005 0.034270857
-0.024576955 -0.022852715 0.083204456 -0.24354918 -0.82423139 0.67032874 0.036244348
-0.027613133 -0.023246281 0.081559934 -0.2293514 -0.82563615 0.65442574 0.034231585
-0.029027659 -0.024533356 0.078822717 -0.2222351 -0.92961752 0.56218833 0.035595357
0.15106431 0.019884173 0.088661984 0.37215158 1.2618279 0.25081927 0.068483226
0.13658002 0.021036042 0.093889333 0.15883909 1.0584265 0.46700543 0.050301008
0.13046987 0.020888545 0.095361501 0.11758292 0.9919588 0.5450384 0.048488062
0.12365218 0.020495696 0.096659094 0.098551646 0.91681343 0.62660944 0.047564194
0.11368696 0.019900082 0.098132849 0.08430136 0.77064741 0.70095754 0.041034646
0.11709133 0.019524423 0.098473676 0.084339686 0.7948764 0.71059966 0.048127297
0.10797071 0.019061662 0.099741869 0.081172124 0.68908876 0.7618494 0.041621055
0.10046971 0.018631011 0.10101824 0.079110213 0.61681491 0.79959637 0.039987586
0.095248044 0.018064296 0.10179102 0.06920214 0.57699078 0.82145703 0.041395683
0.089326367 0.017425587 0.10254083 0.059854176 0.53357697 0.84624821 0.043226995
0.076078065 0.016551277 0.10331208 0.062343813 0.4682126 0.88165337 0.039291974
0.076549686 0.015906215 0.10376786 0.059114654 0.44728142 0.89252669 0.040498134
0.070564978 0.015151058 0.10432335 0.06549684 0.41077861 0.9094699 0.042138938
0.061830968 0.014690614 0.10506614 0.058758292 0.37190342 0.9265213 0.037051387
0.053909011 0.014331653 0.10572524 0.038897548 0.33934432 0.93990928 0.036423273
0.051502015 0.013386537 0.10613621 0.024338948 0.31126553 0.95001572 0.037308995
0.047079109 0.012559606 0.10637254 -0.00473346 0.28463557 0.9586333 0.036658406
0.044508848 0.0114403 0.10669348 -0.016583728 0.24844527 0.96851915 0.037175499
0.039836701 0.010542823 0.1066932 -0.05524445 0.21902454 0.97418761 0.035374463
0.031521779 0.010275857 0.10573457 -0.1085593 0.21735482 0.97005713 0.036232274
0.027995994 0.0092510758 0.10558459 -0.12894757 0.19561866 0.97229189 0.035968874
0.028126657 0.0073852381 0.10611184 -0.13264623 0.15257165 0.97953182 0.03746919
0.023092508 0.0066105765 0.10533641 -0.16539332 0.13763797 0.97673804 0.037773747
0.01905057 0.0056341435 0.10466804 -0.18387702 0.11306284 0.97645587 0.037976187
0.017431734 0.0038312792 0.10468775 -0.19623846 0.074123643 0.97785789 0.038418785
0.016085139 0.0018003797 0.10470933 -0.20218608 0.035509117 0.97923148 0.041521549
0.014949556 -0.00076172897 0.10462723 -0.2137609 -0.031167604 0.97742337 0.045681775
0.0058365241 0.00094705017 0.10212884 -0.24809004 0.018505421 0.96938807 0.044469345
0.0033149123 -0.00057522382 0.10149065 -0.25141349 -0.029768834 0.96844023 0.044669148
-6.5025117e-05 -0.0016236533 0.10041721 -0.26178822 -0.060321506 0.96509725 0.044668853
-0.0061332132 -0.0012341957 0.098642454 -0.26018327 -0.042646628 0.96683586 0.043322939
-0.006694315 -0.0037257716 0.098542526 -0.26135018 -0.12056478 0.96271366 0.045926675
-0.0067430325 -0.006844305 0.098260574 -0.26430023 -0.21411157 0.95246464 0.047449693
-0.014034639 -0.0052155294 0.096274361 -0.26610288 -0.17222039 0.95744127 0.048109189
-0.013857475 -0.0084539019 0.095903248 -0.27082542 -0.28564239 0.93973976 0.049122438
-0.016446941 -0.0098560806 0.094764575 -0.26726845 -0.33942932 0.92910063 0.048483223
-0.022098597 -0.0089114327 0.093365759 -0.26564226 -0.30974889 0.92826897 0.045191482
-0.022907678 -0.011557398 0.092314303 -0.27493468 -0.39960179 0.90376765 0.042663854
-0.02394785 -0.014089321 0.09098278 -0.27122459 -0.48596269 0.87768197 0.041647382
-0.030363152 -0.012028606 0.0897853 -0.29569897 -0.39797136 0.89153004 0.042490516
-0.030061195 -0.015541008 0.088123515 -0.28890717 -0.52034312 0.8481974 0.040877264
-0.028655341 -0.019928848 0.085333452 -0.26313928 -0.70724922 0.76506954 0.040433325
-0.027515307 -0.023514673 0.08126311 -0.23090458 -0.86226529 0.63716978 0.034212902
-0.035924975 -0.019719737 0.083010741 -0.30628777 -0.68264854 0.72932887 0.044612724
-0.031151569 -0.025424797 0.076231904 -0.21778275 -0.99950117 0.47735524 0.04023682
0.14320818 0.021363936 0.090250827 0.2250848 1.1787002 0.33040804 0.057180855
0.13112999 0.021661464 0.093754187 0.12953413 1.0404817 0.47706133 0.046170652
0.12193319 0.021308433 0.095518455 0.10513426 0.93020159 0.57945448 0.042258307
0.11608844 0.020982862 0.096680246 0.088544182 0.85124123 0.64376068 0.041246787
0.11270969 0.020645656 0.097505048 0.084711857 0.80198729 0.68067276 0.041184917
0.10405294 0.020171473 0.098952502 0.07808423 0.70260775 0.73796254 0.035195418
0.095640868 0.019656621 0.10030438 0.068985097 0.63835496 0.77816045 0.033559073
0.094307363 0.019311296 0.10073119 0.068170846 0.62237072 0.78848439 0.035792883
0.081494436 0.018394034 0.10189626 0.066587314 0.54596156 0.83785331 0.036915295
0.076845765 0.017822068 0.10252489 0.062671825 0.51468247 0.85601336 0.037876137
0.074002974 0.017244877 0.10302114 0.064965881 0.48990545 0.87006253 0.042179506
0.066353299 0.016724676 0.10390289 0.072583161 0.45211703 0.88945037 0.038545657
0.064253427 0.016058039 0.10449599 0.065948084 0.42399552 0.90332824 0.041909989
0.05935996 0.015329754 0.10508861 0.060066104 0.38841334 0.91973573 0.040844042
0.057587694 0.014450051 0.10570448 0.051950399 0.35564709 0.93318945 0.041762959
0.045261111 0.014184572 0.10585964 -0.0051384545 0.32628891 0.94525635 0.038880486
0.043764208 0.013073845 0.1062379 -0.016547369 0.29209593 0.95624626 0.038225263
0.042640463 0.01177351 0.10672171 -0.026163807 0.25837746 0.96575296 0.041092712
0.029322639 0.011943975 0.10502031 -0.12198477 0.25656486 0.95880437 0.037072785
0.030878128 0.010191885 0.10586292 -0.11715713 0.21578163 0.96946305 0.03755619
0.020095591 0.010246942 0.10360888 -0.17627749 0.2269204 0.95788884 0.037987586
0.024420822 0.0077544064 0.1053803 -0.16012023 0.16214578 0.97380418 0.039729029
0.015186393 0.0079758735 0.10325452 -0.21175154 0.17727116 0.96119487 0.037108596
0.016470153 0.0056506367 0.10418278 -0.20031591 0.11879032 0.97260207 0.040313721
0.012086174 0.00480437 0.10334326 -0.23121648 0.10086907 0.96778798 0.040669248
0.010775584 0.0028101972 0.10337158 -0.23712516 0.058239359 0.9700591 0.042040531
0.0049443217 0.0026874954 0.10169098 -0.24829392 0.057265867 0.96771187 0.042772595
0.0009048786 0.0018877884 0.10053565 -0.26000211 0.037823815 0.96577466 0.041810211
0.00081225351 -0.00081979856 0.10078267 -0.26156127 -0.038520217 0.96584469 0.046010982
-0.0033291786 -0.0014403334 0.099499322 -0.25924823 -0.055359554 0.9666357 0.045943849
-0.01110048 -0.00022208375 0.097259104 -0.25704831 -0.012943844 0.96780038 0.043550618
-0.010966538 -0.0029475524 0.097383119 -0.25966135 -0.099192619 0.96442419 0.047195241
-0.011466501 -0.0056699691 0.097101718 -0.2637555 -0.18511775 0.9586606 0.047964618
-0.014376673 -0.0069802171 0.096141219 -0.27018726 -0.2363012 0.9487896 0.049918704
-0.016019514 -0.0091008134 0.095183611 -0.26634777 -0.31317192 0.93690348 0.050056532
-0.023932539 -0.0067097712 0.093557589 -0.27900997 -0.23353639 0.94295442 0.047446065
-0.017870935 -0.01463693 0.092572622 -0.26428524 -0.52515316 0.8801887 0.048968129
-0.029071286 -0.0091276718 0.091278099 -0.29587936 -0.30813608 0.92014825 0.045146346
-0.030010274 -0.011624949 0.090114169 -0.29942942 -0.38703784 0.89753544 0.043140795
-0.023913398 -0.020198114 0.086592369 -0.25331673 -0.73574728 0.7502839 0.039506048
-0.032442309 -0.016312977 0.087071091 -0.29576427 -0.55153275 0.83023375 0.041735992
-0.037201732 -0.014898532 0.085843325 -0.33798513 -0.49579665 0.82300287 0.043472216
-0.03160432 -0.023144487 0.080612488 -0.24366035 -0.90141386 0.61305147 0.046772152
-0.038499407 -0.020253412 0.08150135 -0.32033017 -0.73379093 0.69707066 0.048047423
-0.039961845 -0.021805979 0.079333328 -0.3364113 -0.82013458 0.61895061 0.05325814
0.14853869 0.020807993 0.086726874 0.33673906 1.2942164 0.16812377 0.057298206
0.13387965 0.022001846 0.09218514 0.15327331 1.0963209 0.41817352 0.04677498
0.12249003 0.021808621 0.094715752 0.11547449 0.97160703 0.5490396 0.042810619
0.11887664 0.021551225 0.095579013 0.1035447 0.92437643 0.60064882 0.044884231
0.1059484 0.020940786 0.097807869 0.082404032 0.74551094 0.70048082 0.034217469
0.09937489 0.02061935 0.099103831 0.080380738 0.68895376 0.73973584 0.032948047
0.097646035 0.020359345 0.099547431 0.077656865 0.67489284 0.75108016 0.035191115
0.086386263 0.019557124 0.10084173 0.076527096 0.59957063 0.80247533 0.03345643
0.078692012 0.018869473 0.10156223 0.070969388 0.55639702 0.83028936 0.035371594
0.083723187 0.018801438 0.10177837 0.06769228 0.56743705 0.82438421 0.042687774
0.078251891 0.018141979 0.10250473 0.063436761 0.53010023 0.84719002 0.042952321
0.074856028 0.017414948 0.10303307 0.059642073 0.49624404 0.86712438 0.046494942
0.064950764 0.016805368 0.10410459 0.072095908 0.45238596 0.88914382 0.043547362
0.062553972 0.016103493 0.10469533 0.067139998 0.42194989 0.9041391 0.044192743
0.05526739 0.015415222 0.10552511 0.040843483 0.37794283 0.92498851 0.040907215
0.045323018 0.01489646 0.10559178 -0.0041609132 0.34405035 0.93898761 0.038270857
0.040691007 0.014095354 0.10567651 -0.043278545 0.31400138 0.94846016 0.03849997
0.038409792 0.013002675 0.10593028 -0.063552745 0.28106204 0.95764768 0.037069276
0.031667966 0.012362474 0.10528878 -0.10880057 0.26410654 0.95834982 0.037226349
0.026012823 0.011569522 0.10455782 -0.144641 0.25410944 0.95634103 0.037777606
0.025963236 0.010075184 0.1051712 -0.1487266 0.21617791 0.9650811 0.039375361
0.017299196 0.0098131038 0.10329372 -0.19824904 0.22151105 0.95489085 0.038609743
0.015991271 0.0084709916 0.10347806 -0.20580816 0.18554844 0.96095866 0.039740354
0.013295207 0.0072427909 0.10314477 -0.22765937 0.15999527 0.96069455 0.040108319
0.015081094 0.0044726562 0.10426763 -0.20986405 0.096736118 0.97314066 0.04332567
0.0094099753 0.004082459 0.10276496 -0.23579738 0.089855611 0.96797401 0.043263037
0.0046019042 0.0034726176 0.10154358 -0.24872176 0.07801348 0.96616286 0.043411613
0.00097944122 0.0024738477 0.10062837 -0.26065478 0.055993859 0.9647302 0.04344127
-0.0018934377 0.0011958509 0.099858977 -0.26557651 0.017990837 0.96547502 0.044826914
-0.0038342823 -0.00055527437 0.099444486 -0.26133159 -0.02643479 0.96761918 0.046457559
-0.0099764746 -0.00021154883 0.097688839 -0.25861704 -0.012661546 0.9676863 0.044884123
-0.010377679 -0.0027408542 0.097619265 -0.26247478 -0.09092588 0.96534193 0.048002932
-0.016698148 -0.0021084764 0.095860124 -0.25358459 -0.077866793 0.9684754 0.047822654
-0.016796837 -0.0048493035 0.095706306 -0.26233202 -0.1701137 0.95837229 0.049234156
-0.022267794 -0.0044552572 0.094433069 -0.27674481 -0.15579282 0.95666194 0.049402893
-0.023743955 -0.0064471774 0.093699977 -0.2765632 -0.22542796 0.9469986 0.048136998
-0.022527982 -0.010564744 0.093006119 -0.27470213 -0.36787134 0.92073083 0.047398366
-0.027212735 -0.010300552 0.091642566 -0.28964049 -0.3499673 0.91679353 0.044816919
-0.030254187 -0.011156417 0.090279631 -0.29953033 -0.37383613 0.90499735 0.044708304
-0.033251192 -0.012003906 0.089109577 -0.3067449 -0.40706053 0.88526541 0.044982187
-0.032121189 -0.016501125 0.087240547 -0.29761058 -0.57068318 0.83160245 0.045747351
-0.034847643 -0.017359957 0.085431002 -0.30935529 -0.58306998 0.79439765 0.042018894
-0.034681726 -0.020841096 0.082587115 -0.28545877 -0.75718188 0.70501578 0.044897348
-0.038352001 -0.020534735 0.08137583 -0.32133445 -0.75315136 0.68249738 0.049257226
-0.040757906 -0.021263875 0.079691157 -0.35707548 -0.79339361 0.62422031 0.052099094
0.13497898 0.022651227 0.089995019 0.18830562 1.1700456 0.32981613 0.04330188
0.12583125 0.022636823 0.092321813 0.12305564 1.0649384 0.44795099 0.04680654
0.11709712 0.022434028 0.094310768 0.10584526 0.93696994 0.55128497 0.04054381
0.1078808 0.022082256 0.096192725 0.094701149 0.81478393 0.6438694 0.034051798
0.10640672 0.022054704 0.096710995 0.091980778 0.80290616 0.6521948 0.037145026
0.099476881 0.021705652 0.098112039 0.08482793 0.73541534 0.70655131 0.033566024
0.08858832 0.020877905 0.099605009 0.081065409 0.65964806 0.75669086 0.034775294
0.087234244 0.020690098 0.10005827 0.082037538 0.64647472 0.7692641 0.037247006
0.083660051 0.020247212 0.10068525 0.072981961 0.6230489 0.78699428 0.044045474
0.073409095 0.01937281 0.10174084 0.070818678 0.55830491 0.82928485 0.041530415
0.071350522 0.018952796 0.10230664 0.069384426 0.54014707 0.84036475 0.043408155
0.06734103 0.018465944 0.10308461 0.07349667 0.51312584 0.85579419 0.045654658
0.061123099 0.017821031 0.10403768 0.068882577 0.47243637 0.87905401 0.046451084
0.051027603 0.017194454 0.1048561 0.0247133 0.42673478 0.90437049 0.040620215
0.041536361 0.016537834 0.10470837 -0.024759158 0.38321248 0.92352325 0.037222732
0.038296666 0.015772577 0.10493857 -0.061226305 0.35362679 0.93355775 0.037722751
0.036945492 0.014765101 0.10534535 -0.071335576 0.33362997 0.9400118 0.041430306
0.032182276 0.013846585 0.10503384 -0.1046019 0.30347356 0.94709492 0.039064262
0.034515139 0.012277829 0.106071 -0.093529977 0.27172092 0.95789361 0.044775445
0.022300551 0.012011203 0.10383505 -0.16536576 0.27494583 0.94726324 0.03933391
0.021384757 0.010713987 0.1041481 -0.17212342 0.23788632 0.9561013 0.04235214
0.01850386 0.0095183412 0.10394686 -0.18977335 0.21224679 0.95881951 0.042814814
0.014271569 0.0085296836 0.10322586 -0.21884088 0.19296446 0.95673108 0.041726302
0.011632721 0.0071770013 0.10295459 -0.23895797 0.15847129 0.95815754 0.04364628
0.0079863742 0.0060929642 0.10216637 -0.24050814 0.13855946 0.96093714 0.043950152
0.001237795 0.0059014428 0.10012687 -0.25255287 0.14808843 0.95661497 0.042464677
-0.0030729729 0.0051945709 0.098992161 -0.26466474 0.12907475 0.95606977 0.04282812
0.00053885393 0.0014972562 0.10082106 -0.26149201 0.024620004 0.96639675 0.049103297
-0.0046043051 0.0012324521 0.099202596 -0.26510194 0.024245711 0.96626562 0.045258865
-0.008160972 0.00023551381 0.098265402 -0.26716775 -0.0011115262 0.966492 0.046531104
-0.012289699 -0.00042400829 0.097149394 -0.26328444 -0.022268396 0.96716106 0.047156461
-0.01736914 -0.00060303695 0.095725939 -0.25925401 -0.026382361 0.96913463 0.047515664
-0.018794289 -0.002494541 0.095462635 -0.2655842 -0.096380845 0.96577215 0.049612362
-0.025955979 -0.0012733078 0.093519598 -0.28362286 -0.053337187 0.96105385 0.049804375
-0.027193751 -0.0031573453 0.093273163 -0.29694989 -0.11820967 0.95336622 0.051468104
-0.025245814 -0.0075460607 0.09333685 -0.28830513 -0.26469699 0.94352663 0.0504313
-0.029247753 -0.0078410748 0.091858029 -0.29636365 -0.26942176 0.93368655 0.048067432
-0.036443371 -0.0052930801 0.089923956 -0.31985971 -0.20408948 0.93024272 0.047579803
-0.036247354 -0.0086657442 0.089157596 -0.32989398 -0.30262214 0.90846246 0.047612894
-0.038640313 -0.0096955523 0.08786945 -0.35476464 -0.33777162 0.88388878 0.048537653
-0.038062751 -0.013814092 0.086318545 -0.34997991 -0.46717477 0.84085125 0.047797054
-0.037348576 -0.018283667 0.083894327 -0.33485764 -0.6334644 0.75850505 0.04553467
-0.043366697 -0.014999351 0.083369933 -0.42844525 -0.49317527 0.77275085 0.053550627
-0.046360355 -0.014530341 0.081985898 -0.47653151 -0.48106751 0.74416214 0.053266022
-0.049509175 -0.013718922 0.081004836 -0.53412783 -0.4518095 0.72042924 0.062239975
-0.044829573 -0.022734581 0.075309359 -0.44749132 -0.81551027 0.47019032 0.067994595
0.14423898 0.0219106 0.084825665 0.32772025 1.3231422 0.086495623 0.046952628
0.12855709 0.023106188 0.090774491 0.1322459 1.109714 0.38197258 0.044577274
0.12196077 0.023026373 0.092458948 0.12978664 1.0486199 0.47110203 0.043011528
0.10911044 0.022660565 0.095276989 0.10033619 0.85221779 0.60843849 0.033770841
0.098068163 0.022166785 0.097464003 0.081551753 0.74763322 0.68836993 0.032340568
0.09201894 0.021818815 0.098553523 0.074762121 0.70688826 0.7198565 0.033797346
0.093515165 0.021894643 0.098446399 0.074640885 0.72019464 0.71314383 0.035301149
0.087234214 0.021377554 0.099486113 0.083823636 0.6733734 0.74907041 0.038977388
0.074030042 0.020384673 0.10091139 0.075313516 0.5939365 0.80546165 0.039634734
0.065620504 0.019827547 0.1020126 0.082883961 0.550143 0.83212513 0.037419017
0.066952825 0.019592084 0.10225682 0.078569964 0.54960263 0.83406651 0.042126384
0.06772086 0.019290926 0.10258745 0.0723643 0.54190171 0.83868462 0.045710515
0.047515098 0.018648352 0.10402029 0.0097957943 0.44574022 0.89559656 0.037783775
0.043035809 0.017934671 0.10411379 -0.012217924 0.41957721 0.90783936 0.037081089
0.048310611 0.017191023 0.10499212 0.014559925 0.41848996 0.90847349 0.043736245
0.048432931 0.016429741 0.1055654 0.010565924 0.40139213 0.91586196 0.049646594
0.046132624 0.015304822 0.1059963 -0.0021027734 0.36351356 0.93158859 0.050126731
0.035181519 0.014471251 0.10548922 -0.083150759 0.32809556 0.94102502 0.045744546
0.028877335 0.013573383 0.10477043 -0.13330872 0.30229977 0.94384974 0.041434933
0.026556009 0.012431516 0.10477648 -0.14803404 0.28200576 0.948035 0.041645054
0.016471338 0.011916409 0.10267419 -0.20376997 0.27695858 0.93909383 0.040388249
0.014617985 0.010768319 0.10265788 -0.21683952 0.25108212 0.94349992 0.04013826
0.012174597 0.0096000154 0.10237742 -0.23656118 0.21966881 0.94656676 0.04075418
0.012011067 0.007814494 0.10299989 -0.23909277 0.17412077 0.95548844 0.046027988
0.0075098267 0.0069417097 0.1019578 -0.24478015 0.16217615 0.95634604 0.045031093
-0.0024470249 0.0071853446 0.098528519 -0.25748858 0.19435525 0.94682515 0.039565399
0.0036541529 0.0035853989 0.10150681 -0.25463551 0.081169501 0.96472889 0.046775177
-0.0021065529 0.0033237434 0.099783905 -0.26660132 0.0769438 0.96185136 0.046691801
-0.014659518 0.0048864246 0.095394731 -0.25340363 0.14524788 0.95706087 0.046817079
-0.0088689141 0.0011471724 0.098064989 -0.26776758 0.023218382 0.96525156 0.046199087
-0.0097234398 -0.0012172109 0.098037519 -0.26672399 -0.047750674 0.96681088 0.051085215
-0.011466003 -0.0032404773 0.097524948 -0.26689908 -0.10820482 0.96560585 0.052069902
-0.013625571 -0.005192643 0.0967701 -0.26878798 -0.17291284 0.95909578 0.051019542
-0.021289892 -0.0034442111 0.094876789 -0.27184242 -0.12926158 0.96227747 0.051720664
-0.025475591 -0.0038589896 0.093778044 -0.28720516 -0.13807155 0.95668465 0.051379822
-0.027842876 -0.0053203413 0.092835732 -0.29544556 -0.18851805 0.95036125 0.051832143
-0.031062502 -0.0061692689 0.091708399 -0.2955254 -0.22403109 0.94251221 0.050300576
-0.031652782 -0.0089734457 0.090818025 -0.30289993 -0.30909458 0.9218958 0.048334427
-0.029345511 -0.014396625 0.089445859 -0.28998905 -0.50501567 0.87982172 0.048276193
-0.038575977 -0.009754221 0.088022672 -0.35645637 -0.33978364 0.88679492 0.050279588
-0.040584661 -0.011126591 0.086532839 -0.38147724 -0.38105801 0.85815346 0.04850132
-0.042641047 -0.012379621 0.085091606 -0.4163191 -0.41926548 0.81936133 0.051932819
-0.044701777 -0.013470318 0.083559282 -0.45005655 -0.45143834 0.78097069 0.051821824
-0.04709664 -0.01395158 0.082094193 -0.49421135 -0.46042815 0.74593276 0.056280073
-0.047700711 -0.017026562 0.079979956 -0.51615268 -0.55527925 0.66698301 0.063408338
-0.049048521 -0.018222291 0.077916607 -0.54628336 -0.61687589 0.58560342 0.069374956
0.13140637 0.023631252 0.08779747 0.18472615 1.2307382 0.25445172 0.043355513
0.12085001 0.023715798 0.090735644 0.13786489 1.0858227 0.41502145 0.045243196
0.11830892 0.023798484 0.091440961 0.13011473 1.0508056 0.44857931 0.042813975
0.11213718 0.023797685 0.093093336 0.10911541 0.9546054 0.52880794 0.039291564
0.096854657 0.023284258 0.096464068 0.087268539 0.78622192 0.65337795 0.033698536
0.092380404 0.023069222 0.097333267 0.080873057 0.75682521 0.6805222 0.034314867
0.082577303 0.022311265 0.098828129 0.07451278 0.69427979 0.72941923 0.04056038
0.089476682 0.022789344 0.098112032 0.083975464 0.7332837 0.70417029 0.038855646
0.078014418 0.021872539 0.099695168 0.074506842 0.66559035 0.7521894 0.047059327
0.053681444 0.02074117 0.10243312 0.057503641 0.53105563 0.84678507 0.037661903
0.059366908 0.020549679 0.10247723 0.070908733 0.55521822 0.82942051 0.041828189
0.047065031 0.019971 0.10340305 0.010552987 0.48726466 0.87413889 0.039451037
0.048743784 0.01953261 0.10391641 0.026526516 0.48705524 0.87362576 0.043982401
0.038969245 0.018644469 0.1038574 -0.043473288 0.44215509 0.89609897 0.040722705
0.041388031 0.018022234 0.10442308 -0.023891268 0.43455195 0.90072393 0.043437913
0.043527387 0.017457947 0.10508859 -0.012457192 0.4277938 0.90383112 0.053351995
0.026839269 0.016170774 0.10329921 -0.13972414 0.37077931 0.91817552 0.042103741
0.030134507 0.015329569 0.10465998 -0.12341451 0.3554194 0.92654365 0.04885732
0.024977256 0.014230493 0.10397709 -0.15746629 0.32901165 0.93114388 0.044658948
0.016429605 0.01334636 0.10224009 -0.20721962 0.31091905 0.9275918 0.040084425
0.014383071 0.012299007 0.10226145 -0.21722263 0.28905663 0.9323681 0.041264448
0.0099693099 0.011301183 0.10139732 -0.24028224 0.27127838 0.93226194 0.043359805
0.0050420435 0.010437671 0.10012401 -0.25174412 0.25372729 0.93406463 0.040167153
0.0041187741 0.0091159344 0.10037584 -0.25496337 0.22448766 0.94080138 0.040777251
-0.0031391701 0.0085443724 0.098125085 -0.26085722 0.22632584 0.93885732 0.040819835
0.00080144644 0.0061828806 0.10021303 -0.2596103 0.15148866 0.95444763 0.045012899
-0.0057686577 0.005936943 0.098182581 -0.26492342 0.15317684 0.95244998 0.043958366
-0.0077053453 0.0044751288 0.097938366 -0.26473603 0.11884347 0.95807016 0.044224363
-0.012557353 0.0038756586 0.096595086 -0.25888237 0.11179684 0.96080947 0.04497705
-0.011221102 0.0010100326 0.097516172 -0.26804581 0.017309656 0.96562397 0.050507821
-0.016502013 0.00087210839 0.095993482 -0.260809 0.014008446 0.96859652 0.049043477
-0.017052114 -0.0016527649 0.096094534 -0.2688697 -0.06773638 0.96618074 0.053054158
-0.023341488 -0.0010556026 0.09445966 -0.27834934 -0.051386565 0.96532214 0.053016178
-0.028117128 -0.0011896538 0.093144633 -0.29419643 -0.058814608 0.95974022 0.053647529
-0.026963435 -0.0047687255 0.093418166 -0.29100341 -0.17543788 0.95568693 0.053669345
-0.028915357 -0.0066331252 0.092477404 -0.29168478 -0.23327629 0.94822735 0.052547514
-0.037774321 -0.0032427139 0.089828365 -0.33819765 -0.13935733 0.9346301 0.052298225
-0.034814116 -0.0090204645 0.089942515 -0.32722127 -0.3151229 0.91529697 0.049622759
-0.039047144 -0.0088527156 0.088439047 -0.36312729 -0.314558 0.89744502 0.052223943
-0.039280497 -0.012361749 0.08685407 -0.37462714 -0.42901954 0.85039794 0.054404914
-0.040201209 -0.015538843 0.084868424 -0.38207856 -0.53432041 0.79388249 0.057381518
-0.0451556 -0.013364933 0.083649829 -0.46133214 -0.44424137 0.78316718 0.05830384
-0.04839338 -0.01257127 0.082252972 -0.51857787 -0.41662225 0.75228405 0.059202921
-0.047275752 -0.018556019 0.079090469 -0.51403713 -0.62112445 0.61366165 0.068893753
-0.050420616 -0.017099589 0.078028411 -0.57861966 -0.56834614 0.59523237 0.073502906
-0.050588451 -0.020056486 0.074882105 0.59263909 0.65746599 -0.48666522 0.079530448
-0.047050007 -0.026607186 0.067907035 -0.52764124 -0.80755103 0.27463266 0.085523106
0.13441201 0.023697138 0.085702941 -0.17695299 -1.1862175 -0.18665121 0.037733361
0.12132973 0.023985093 0.089765057 0.13901789 1.0859907 0.383517 0.043130722
0.11309968 0.024078835 0.092018791 0.11638673 0.95469028 0.50475907 0.035788789
0.11439262 0.024230361 0.091743395 0.12108808 1.0051965 0.48505029 0.040400833
0.093210272 0.023521375 0.096531428 0.081456073 0.77864534 0.65930182 0.032870259
0.086036004 0.023066409 0.09774626 0.083438918 0.72887236 0.69773346 0.034482755
0.083219536 0.022920633 0.098231629 0.075942583 0.71803719 0.70865357 0.040697694
0.074102148 0.022151703 0.099444397 0.078731723 0.66143209 0.75263464 0.041387275
0.073406659 0.022155225 0.099775396 0.076314166 0.65916836 0.75535375 0.046919841
0.059609655 0.021386286 0.1017434 0.073802978 0.57959574 0.81317967 0.038076468
0.073255792 0.022131991 0.10013984 0.066319525 0.65777171 0.75766033 0.055854265
0.055469524 0.020826722 0.10273242 0.06068093 0.55432701 0.83117479 0.04213101
0.054949779 0.020676795 0.10324418 0.046691246 0.54837495 0.83553833 0.051104933
0.047475673 0.019780181 0.1039486 0.014078518 0.49823886 0.86722451 0.048620101
0.034150038 0.018575627 0.10331823 -0.084038526 0.42876467 0.89994019 0.04137959
0.035120621 0.017925663 0.10403073 -0.082581609 0.42200696 0.90314287 0.044964042
0.032171469 0.017084666 0.10416274 -0.10254862 0.40254435 0.90974134 0.047064155
0.026376588 0.016046451 0.10351713 -0.14711449 0.37271693 0.9162097 0.045581095
0.020547697 0.015044156 0.10265224 -0.17544319 0.34967947 0.9203186 0.042374518
0.016280321 0.014080646 0.101982 -0.20758948 0.32871655 0.92134774 0.040253267
0.016413093 0.012985257 0.10263692 -0.20944487 0.30512419 0.92907584 0.044558596
0.019645914 0.011228897 0.10420813 -0.18534555 0.25809985 0.94833535 0.052887261
0.0086327344 0.010867063 0.10128559 -0.24489157 0.26117972 0.93390948 0.044910762
-0.0010947208 0.010496624 0.098166235 -0.26405221 0.25728506 0.92962027 0.042870376
0.0023136339 0.0085955812 0.10010528 -0.25386226 0.21684171 0.94311243 0.044219024
-0.0043910611 0.0080129122 0.098059453 -0.25960657 0.21659653 0.94156075 0.041682165
-0.0048301751 0.0064849802 0.098421231 -0.26505592 0.16411602 0.95068491 0.045948636
-0.009720088 0.0058320835 0.097141474 -0.2640999 0.1579611 0.95193952 0.043811865
-0.0087784287 0.0034496193 0.098027252 -0.27145398 0.086249202 0.96051478 0.05037019
-0.012556939 0.0025162469 0.097018868 -0.26390365 0.064079121 0.96478271 0.048538864
-0.017816758 0.0021984712 0.095529079 -0.26503703 0.058179792 0.96507007 0.049029395
-0.021692822 0.0014128864 0.094650611 -0.27188843 0.033386767 0.96584558 0.050147604
-0.020291764 -0.0018672632 0.095392279 -0.27293873 -0.0762171 0.96735936 0.054024018
-0.02664209 -0.0012653072 0.093673676 -0.28930342 -0.056780268 0.96295226 0.05140226
-0.026871245 -0.0040224874 0.09354651 -0.29188022 -0.14890215 0.95905274 0.053637713
-0.028559856 -0.0060846563 0.092744052 -0.29031569 -0.21562032 0.95265579 0.053042743
-0.032849405 -0.0064321551 0.091376692 -0.30918255 -0.23629095 0.94040072 0.052833121
-0.037856281 -0.005857015 0.089636654 -0.35061893 -0.21949577 0.92260486 0.052543167
-0.039409954 -0.0079581793 0.088569455 -0.36543974 -0.28765193 0.90234202 0.052649628
-0.04233066 -0.0086991247 0.087138325 -0.40981513 -0.3100529 0.87153649 0.05741141
-0.044493575 -0.0099974275 0.085643634 -0.44706833 -0.34778732 0.83517677 0.061480597
-0.047974907 -0.0087969694 0.084071524 -0.50627148 -0.32186025 0.80294472 0.061390679
-0.048013907 -0.013250821 0.082211316 -0.52080244 -0.44194293 0.74219197 0.063633583
-0.051663931 -0.010860742 0.081099682 -0.58702183 -0.36976144 0.72329813 0.064750835
-0.051967371 -0.014849291 0.078873858 -0.60850483 -0.48749682 0.63671476 0.074227676
-0.052614659 -0.017151298 0.076346636 0.63553041 0.56326419 -0.54140145 0.079952464
-0.053321738 -0.019148011 0.073716894 0.6682831 0.60839629 -0.44989422 0.085243516
0.12267492 0.02455155 0.087188482 0.16034788 1.118041 0.3008084 0.040860619
0.1156162 0.024933781 0.08931154 0.14686231 1.0490831 0.40058419 0.038090989
0.10901552 0.025141424 0.091176867 0.11729944 0.95419544 0.48613721 0.033537902
0.096072063 0.024875538 0.094512366 0.093392797 0.84775662 0.59338927 0.031633791
0.087880231 0.02443165 0.096090861 0.091953918 0.78784561 0.64276552 0.033141203
0.089558892 0.024737034 0.0957032 0.094983339 0.80708933 0.630252 0.034682218
0.082765691 0.024311801 0.096992888 0.085821748 0.77108574 0.66487491 0.041572239
0.076872818 0.023940379 0.097957537 0.077001348 0.7360478 0.68961 0.048789397
0.06938228 0.023427967 0.09927471 0.077196643 0.68927521 0.72648436 0.046845883
0.060050435 0.022762315 0.10091051 0.077369884 0.63488746 0.76992166 0.046491034
0.053425442 0.022386413 0.10212401 0.04207699 0.59720683 0.80173689 0.046173863
0.0454567 0.021616708 0.10270923 0.0060788742 0.54496402 0.84063208 0.045468718
0.041404624 0.020971829 0.10298741 -0.017505348 0.52092421 0.85455638 0.045916874
0.041110571 0.02059889 0.10331958 -0.023130944 0.51859087 0.85539687 0.048476111
0.028686136 0.019118618 0.10243309 -0.13258064 0.44540522 0.88576949 0.045116264
0.029419243 0.018645244 0.10313088 -0.12411801 0.44651338 0.88632578 0.050279398
0.028624741 0.017909352 0.10340513 -0.13167106 0.42742833 0.8946119 0.050485127
0.025828056 0.016957249 0.10336966 -0.15012605 0.40203276 0.90329468 0.050197348
0.018032648 0.015688932 0.10200507 -0.19247253 0.37562573 0.90658945 0.045163903
0.012791481 0.014656307 0.10113958 -0.22531651 0.35023433 0.90917689 0.044186432
0.012751186 0.013690859 0.10174192 -0.22642608 0.33081868 0.91620004 0.046932854
0.0021001645 0.012664156 0.09865015 -0.25361967 0.31482747 0.91469193 0.041091815
0.00052355521 0.01169825 0.098557144 -0.26054946 0.29374099 0.91974092 0.042013731
0.0019993251 0.010305387 0.099688917 -0.25144216 0.26032841 0.9324739 0.046349976
-0.0046813996 0.0094818063 0.097738758 -0.26063675 0.25651389 0.93133891 0.042891923
-0.0051590921 0.0081356876 0.098146029 -0.26783422 0.21480843 0.93959725 0.047516234
-0.0084926905 0.0070409998 0.097418725 -0.26724821 0.1893384 0.94521159 0.047640231
-0.0092751039 0.0052226777 0.097680196 -0.26920158 0.13541526 0.95439953 0.052009977
-0.018294154 0.0056530256 0.094813414 -0.25937033 0.16711815 0.95220393 0.04819439
-0.015329622 0.0028065583 0.096430853 -0.26547971 0.073457055 0.96438497 0.055159483
-0.021282429 0.002677592 0.094780669 -0.27195925 0.070338011 0.9622739 0.051573068
-0.028910814 0.0032727506 0.092742667 -0.28715092 0.088060096 0.9559083 0.052573327
-0.030697418 0.0018282172 0.092389882 -0.28889871 0.040316738 0.96039653 0.052603927
-0.030435737 -0.00067885069 0.092688024 -0.29316562 -0.046314061 0.96227455 0.05384529
-0.03222391 -0.0024846958 0.092115633 -0.29872945 -0.1045614 0.95942813 0.052713919
-0.038035046 -0.0016923388 0.090131901 -0.34179726 -0.087828234 0.9400413 0.054930482
-0.041515768 -0.0019206111 0.088622443 -0.38091716 -0.099811703 0.92164826 0.052736852
-0.042636372 -0.0042419713 0.088001549 -0.39977938 -0.17319292 0.90570235 0.055260152
-0.044531111 -0.0058866306 0.086919487 -0.44192389 -0.22478415 0.87491173 0.061137244
-0.045255378 -0.0092800558 0.085834458 -0.46390301 -0.32950312 0.83510995 0.064056121
-0.048948314 -0.0077547156 0.083971158 -0.5304271 -0.28362501 0.8013289 0.064529628
-0.050004788 -0.010886532 0.082420245 -0.55865204 -0.37235942 0.74889225 0.068694562
-0.052730083 -0.0099307997 0.080959029 -0.62346137 -0.33512977 0.71071887 0.0736662
-0.053533994 -0.013125855 0.078823149 -0.65111214 -0.43324375 0.6317898 0.076617606
-0.054595079 -0.014873138 0.076597214 0.68918401 0.48628196 -0.54561555 0.084280461
-0.054921877 -0.018127797 0.073525831 0.71499598 0.55955034 -0.43175495 0.095898084
-0.054333411 -0.021325491 0.069401652 0.72467399 0.63023031 -0.29607472 0.098810732
-0.053878114 -0.022926252 0.065934822 0.75226063 0.62208956 -0.23020788 0.097834833
0.13252519 0.024316836 0.082294524 -0.193892 -1.2206033 -0.088553898 0.037176795
0.11488751 0.025270043 0.088918559 0.14030793 1.0448254 0.40327537 0.035178345
0.10603946 0.025459059 0.091490597 0.11536509 0.93525475 0.50276774 0.031310271
0.10261222 0.025526911 0.092188977 0.11341447 0.92354935 0.52385271 0.032753095
0.093696073 0.025378821 0.094404809 0.090022728 0.85378164 0.58728075 0.032987036
0.080911234 0.024365952 0.096772686 0.08767283 0.76124907 0.66145331 0.038357977
0.078371793 0.024333341 0.097127341 0.076919019 0.75468767 0.6702379 0.042953908
0.069416597 0.023714956 0.098763093 0.081431955 0.69893831 0.71554142 0.041457985
0.06519796 0.023548605 0.099497549 0.087409712 0.67468631 0.73576325 0.045180347
0.063882209 0.023622032 0.099710695 0.082181603 0.67354476 0.73702854 0.046155728
0.053590026 0.022995654 0.10171878 0.044803023 0.61849636 0.78521895 0.047438547
0.042872056 0.022000775 0.1023475 -0.0054757497 0.54779518 0.83849663 0.044794157
0.042424228 0.021651404 0.10263304 -0.0062825326 0.54843479 0.83760798 0.04744326
0.032531139 0.020492762 0.1023636 -0.091237441 0.48469529 0.87050408 0.045100793
0.030205783 0.019882258 0.10248516 -0.11682711 0.47055247 0.8752107 0.046038408
0.031509098 0.019513534 0.10312624 -0.10799765 0.47167546 0.87594169 0.049967881
0.02308652 0.018113887 0.10194626 -0.16303788 0.43077889 0.88780719 0.045850471
0.025952006 0.017791992 0.10311931 -0.14875443 0.42710295 0.89200312 0.052128397
0.025195207 0.016897857 0.10343894 -0.15337279 0.40257448 0.90248656 0.053785615
0.015211541 0.015447092 0.10158554 -0.21292646 0.3708702 0.90395337 0.046957601
0.013413366 0.014436946 0.10168303 -0.22056051 0.3473244 0.91144657 0.04812954
0.012695626 0.013307953 0.1020522 -0.22850785 0.31802362 0.92024267 0.050776441
0.0048170472 0.012201965 0.099880166 -0.25332782 0.30248868 0.91908133 0.046316136
-0.00021603936 0.011198458 0.098724984 -0.25973603 0.28968108 0.92148417 0.043935794
-0.00022946886 0.0097814463 0.099283956 -0.25899589 0.24887878 0.93336934 0.048061587
-0.0041629062 0.0087200403 0.098336786 -0.26831043 0.2270022 0.93643254 0.048471849
-0.0085207522 0.007796457 0.097254604 -0.26436034 0.20884533 0.94188637 0.048480466
-0.01269802 0.0068757129 0.096127287 -0.26286769 0.19363733 0.94587272 0.047609493
-0.014661379 0.0055453721 0.09610337 -0.26284087 0.15735283 0.95308644 0.049600866
-0.018199325 0.0045366185 0.095249198 -0.26673016 0.13176471 0.95666176 0.050234728
-0.02140655 0.0034564154 0.094617613 -0.27085161 0.095011465 0.96000123 0.05057482
-0.027532168 0.0034373177 0.093034558 -0.28667092 0.092048518 0.95599675 0.050069302
-0.026245734 0.0006155076 0.093806036 -0.28358757 -0.0032697672 0.96446723 0.053053159
-0.032495774 0.0010056866 0.092016734 -0.29145557 0.0062560891 0.96082884 0.053879671
-0.033142261 -0.0012701319 0.09196645 -0.30291209 -0.067251608 0.95899302 0.054516807
-0.037477363 -0.0015098315 0.090413243 -0.33690718 -0.081666872 0.94348562 0.055004396
-0.039184675 -0.0034038755 0.089726731 -0.36001185 -0.14223546 0.93218923 0.055244811
-0.04069896 -0.0056892838 0.088944085 -0.38913879 -0.21569923 0.90988719 0.058727987
-0.044938393 -0.0050200624 0.08691939 -0.44670492 -0.20050608 0.87657428 0.06133936
-0.046551455 -0.0071618352 0.085746445 -0.48527047 -0.26511192 0.83877188 0.064806581
-0.048349421 -0.0090190629 0.084185816 -0.52373356 -0.31604499 0.79908741 0.068125434
-0.050798338 -0.0093143266 0.082493015 -0.57575768 -0.32245138 0.75459343 0.070467427
-0.049836162 -0.017038245 0.079341248 -0.57494736 -0.57111418 0.61858797 0.086910598
-0.052917045 -0.015358607 0.078022279 0.64690983 0.50418836 -0.58522469 0.085757956
-0.055274069 -0.013677147 0.076867908 0.71504939 0.43788663 -0.55162001 0.085154563
-0.056685813 -0.013932638 0.075268857 0.75603831 0.43717402 -0.49594378 0.086684681
-0.057683725 -0.01420015 0.07360293 0.7900483 0.44001999 -0.43462652 0.087181784
-0.053662732 -0.02356568 0.064703979 0.75714761 0.62827367 -0.19790635 0.099953853
0.11422681 0.025833631 0.087435782 -0.14033449 -1.0493053 -0.3506746 0.035626911
0.11103709 0.026155768 0.088037997 0.13832727 1.042697 0.37206849 0.034528945
0.095744818 0.026106467 0.092699945 0.097945437 0.88440406 0.53581119 0.028638396
0.097185425 0.026607405 0.091930233 0.098823927 0.87784225 0.54042965 0.031409916
0.087625749 0.026008587 0.093972094 0.091951087 0.82794034 0.59131473 0.034158569
0.082754344 0.025883922 0.094805278 0.08374355 0.80076969 0.61432147 0.0396019
0.060775395 0.024254043 0.099446535 0.090832263 0.67821825 0.73148376 0.039374493
0.069854945 0.025214197 0.097307451 0.079360805 0.74060726 0.6739527 0.044877298
0.060175586 0.024636818 0.099403359 0.080092259 0.69214141 0.7196663 0.047744293
0.058696125 0.024785152 0.099594384 0.076009668 0.69070464 0.72135466 0.050652113
0.049217846 0.023987943 0.10135964 0.037781585 0.63933009 0.76952201 0.051736962
0.041574311 0.022961693 0.10189228 -0.012909058 0.59190267 0.80763501 0.049872462
0.050842106 0.024576847 0.10098696 0.043178815 0.65862817 0.75275797 0.058779579
0.040105 0.022737749 0.10232686 -0.031159904 0.58746994 0.80973828 0.058247432
0.033208117 0.021370316 0.1025636 -0.089396 0.53728914 0.84030014 0.056328509
0.02444136 0.019749843 0.1017691 -0.15108079 0.4781113 0.86565894 0.049895804
0.025505519 0.019416109 0.10233655 -0.14625868 0.47349873 0.8691963 0.053122483
0.016013475 0.017708857 0.10074987 -0.20838684 0.43111113 0.87813497 0.04662222
0.016449748 0.017099012 0.10131207 -0.20191891 0.41519642 0.88724929 0.047451776
0.0065189088 0.01553429 0.098888576 -0.2482592 0.37997481 0.8911081 0.043669388
0.0094234738 0.014977645 0.10043187 -0.24655698 0.36892432 0.89617103 0.049388554
0.003355447 0.013721867 0.098944277 -0.25455731 0.34640172 0.90293831 0.046402402
-0.0040972284 0.012606463 0.096825421 -0.26082984 0.33113545 0.90687191 0.044340223
-0.0024716202 0.011647526 0.098138481 -0.25841013 0.31044286 0.91536307 0.046413664
-0.0025375294 0.010173344 0.098750368 -0.26209283 0.26407278 0.92834568 0.0529074
-0.012126719 0.0096327839 0.095580846 -0.26580057 0.26989844 0.92575401 0.046138264
-0.011046313 0.008040118 0.096538588 -0.26400697 0.21848936 0.93970358 0.050736271
-0.015317692 0.0071633989 0.095534123 -0.26297823 0.205984 0.94322425 0.049500369
-0.01462747 0.0048667835 0.096408345 -0.26803568 0.13279516 0.95529807 0.055990078
-0.023825265 0.0055579841 0.093802758 -0.26900581 0.15948886 0.95092446 0.050919954
-0.026497817 0.0044069975 0.093335979 -0.28346333 0.120252 0.95291132 0.051651705
-0.029729497 0.0034151846 0.092604175 -0.2858091 0.082297511 0.95631295 0.053002466
-0.028815866 0.00053750875 0.093399264 -0.28439876 -0.0098371608 0.96469271 0.057357743
-0.034744091 0.00078789232 0.091535583 -0.30877686 -0.0022922521 0.95623636 0.054398745
-0.037665009 -0.00037428053 0.090560272 -0.34089401 -0.047566168 0.94398457 0.057178047
-0.041060448 -0.0011095215 0.089301124 -0.37302893 -0.072995 0.92850024 0.057598539
-0.045549016 -0.00048535538 0.087176874 -0.43606284 -0.050569136 0.90017885 0.06182158
-0.045109168 -0.0046395124 0.087278657 -0.45301872 -0.18651606 0.87894559 0.065041162
-0.047398806 -0.0061532338 0.085782975 -0.50237715 -0.23503633 0.83813483 0.067550935
-0.048009425 -0.010442138 0.084200248 -0.5251987 -0.36384222 0.78602642 0.074224412
-0.051873505 -0.0082211504 0.082326204 -0.60014617 -0.29604629 0.74792618 0.07315547
-0.054247748 -0.0079620089 0.080692075 -0.6654135 -0.27376571 0.69855881 0.077609621
-0.055612341 -0.009731194 0.078911141 0.71423423 0.31591526 -0.62855798 0.08505851
-0.056959178 -0.010320463 0.077191375 0.75699008 0.33217776 -0.56734842 0.083627567
-0.057772949 -0.01320781 0.07470952 0.79339045 0.40575317 -0.4639017 0.093389295
-0.05600499 -0.020404927 0.068081886 0.76993954 0.6207034 -0.23068133 0.10427845
-0.059241932 -0.013501869 0.071524329 0.84196162 0.41964504 -0.34938967 0.089504965
0.1109878 0.0267113 0.086281709 -0.14781539 -1.0623654 -0.31701797 0.030690143
0.096797854 0.026951613 0.091025345 -0.096890762 -0.88377059 -0.5156725 0.026925245
0.094057545 0.027249126 0.091331169 -0.090149492 -0.85585243 -0.54394311 0.028903803
0.085842803 0.02673265 0.092997134 -0.087667115 -0.8151316 -0.59077573 0.033262439
0.08564309 0.027239513 0.092338935 -0.07755363 -0.81214613 -0.58366311 0.040122025
0.073696166 0.026185481 0.095217466 -0.078879632 -0.78114766 -0.62669355 0.042007122
0.066664807 0.026021421 0.096821181 -0.086246729 -0.75442016 -0.65447545 0.044325687
0.053961176 0.025338504 0.099702731 0.065518767 0.69587165 0.71729046 0.049886275
0.05611359 0.025822915 0.098961681 0.06599053 0.71501106 0.6985026 0.047621604
0.050666153 0.025535334 0.099954106 0.045277257 0.68836528 0.72545761 0.052291594
0.046976991 0.025235128 0.10047336 0.031427886 0.67687201 0.73858523 0.058733996
0.039684266 0.024197709 0.10118569 -0.028646732 0.63107651 0.77775931 0.053370371
0.035164025 0.023514995 0.10145606 -0.064328864 0.60569346 0.79514313 0.055894073
0.025015511 0.021633957 0.1007894 -0.14192222 0.52845812 0.83833277 0.050892875
0.028123248 0.021964453 0.10147379 -0.12655053 0.55234987 0.82621205 0.057722721
0.021941729 0.020591399 0.1008888 -0.16307124 0.50752425 0.84693015 0.050096639
0.024954392 0.020938234 0.10169184 -0.14416085 0.52140915 0.84195209 0.061516162
0.018332869 0.019275567 0.10101447 -0.18487236 0.47460639 0.86105949 0.052954987
0.010914392 0.017614709 0.099687055 -0.23473303 0.43907744 0.86743784 0.048823684
0.0052032685 0.016280025 0.098489672 -0.2527971 0.41188425 0.87554336 0.048681296
0.0047230236 0.01556645 0.09879221 -0.25022894 0.39784592 0.88273203 0.049903959
0.0021706645 0.014542121 0.098523721 -0.25610381 0.37513322 0.8909443 0.04998051
-0.0085894791 0.013026196 0.095256977 -0.26330563 0.3546795 0.89717066 0.045746107
-0.005836769 0.01227476 0.096835129 -0.26619402 0.33173817 0.9052496 0.049348265
-0.0074028661 0.011127626 0.09693104 -0.26411474 0.30020311 0.91675806 0.053025827
-0.014418318 0.010203536 0.094929449 -0.25760502 0.29276517 0.92108107 0.048033085
-0.018479107 0.0092734769 0.094109803 -0.25688094 0.27521163 0.92675859 0.049245209
-0.020363702 0.008173869 0.094061628 -0.26368016 0.23959972 0.93490469 0.051465351
-0.024162145 0.0072973198 0.093415871 -0.26926246 0.21353745 0.93942434 0.051171556
-0.031262681 0.0071873865 0.091313317 -0.28118709 0.20364416 0.93797588 0.051156472
-0.033058677 0.0059558451 0.091233805 -0.28503242 0.16547482 0.94498461 0.051676843
-0.0330397 0.0040762965 0.091709495 -0.29151431 0.1035777 0.95204282 0.054780424
-0.037951306 0.0037970319 0.090237416 -0.33280981 0.094742484 0.93953288 0.055521354
-0.03404076 -0.00065441075 0.092104465 -0.31325737 -0.048410136 0.95852685 0.059772387
-0.042475212 0.001203233 0.088962346 -0.39020467 0.0065329461 0.92288011 0.061489139
-0.043719597 -0.001062592 0.088517644 -0.42322686 -0.073611654 0.90775394 0.066690035
-0.046526551 -0.0021420093 0.087167121 -0.47363868 -0.10821223 0.87847036 0.069916442
-0.050748792 -0.00033003316 0.084633492 -0.55099213 -0.066089831 0.83227694 0.071433775
-0.050922658 -0.0051238285 0.084181093 -0.57535309 -0.20579457 0.79636484 0.078902051
-0.052543323 -0.0076267063 0.082421489 -0.62483466 -0.27354339 0.73771852 0.085236765
-0.055518609 -0.0047534639 0.080635749 -0.68942535 -0.19718689 0.69858807 0.077878505
-0.056205261 -0.010111932 0.078363284 0.73987049 0.33576828 -0.59012938 0.092696764
-0.057674862 -0.0097148698 0.07670179 0.7849828 0.31892234 -0.53395128 0.089562967
-0.058064647 -0.015031341 0.072565712 0.81220049 0.46109802 -0.37649649 0.10217708
-0.059734777 -0.0096334787 0.073738091 0.85501474 0.30722168 -0.42271671 0.08784914
-0.055446137 -0.022494903 0.061955601 0.79714102 0.61429161 -0.067652106 0.10976125
-0.05757482 -0.019667398 0.063129626 0.858576 0.52345991 -0.079227209 0.10189884
0.10741173 0.028293895 0.085855663 -0.12498806 -0.93176317 -0.43091491 0.02799039
0.094378538 0.028141646 0.089961112 -0.081567846 -0.84411216 -0.54637486 0.029446891
0.086009502 0.027516592 0.091690309 -0.083317108 -0.82267916 -0.56926525 0.033664495
0.082897134 0.027678469 0.091835909 -0.073223718 -0.8187384 -0.5738014 0.038918383
0.069668956 0.026760612 0.095190942 -0.087243654 -0.78622115 -0.61907065 0.041097056
0.061483461 0.026570583 0.097174436 -0.084355786 -0.75787455 -0.65024453 0.043579835
0.05531292 0.02649614 0.098439753 0.071440317 0.73375249 0.67803967 0.047858525
0.048551057 0.026125826 0.09947437 0.042472161 0.70688844 0.70980215 0.051660948
0.050201014 0.026664445 0.09890797 0.045340456 0.72605586 0.68901169 0.052338455
0.045418534 0.026297674 0.099597037 0.022412786 0.70835018 0.709575 0.058965307
